0.000000,0.000000,-0.000000,0,0,15
0.000000,0.000000,-0.000000,0,0,16
0.000000,0.000000,-0.000000,0,0,18
0.000000,0.000000,-0.000000,0,0,18
0.000000,0.000000,-0.000000,0,0,12
0.000000,0.000000,-0.000000,0,0,10
1.162956,0.412524,-5.150000,72,72,74
1.167472,0.443706,-5.170000,71,70,75
1.167472,0.473286,-5.170000,67,64,67
1.167472,0.502867,-5.170000,63,60,66
1.167472,0.532447,-5.170000,62,59,65
1.167472,0.562028,-5.170000,57,54,60
1.167472,0.591608,-5.170000,54,51,54
1.167472,0.621188,-5.170000,50,48,51
1.167472,0.650769,-5.170000,48,45,49
1.167472,0.680349,-5.170000,42,39,45
1.162956,0.707183,-5.150000,42,36,40
0.980044,0.620788,-4.340000,39,36,39
0.975528,0.642644,-4.320000,35,31,42
0.966495,0.661182,-4.280000,18,19,39
0.961979,0.682466,-4.260000,7,8,31
0.961979,0.706840,-4.260000,8,9,34
0.959721,0.729497,-4.250000,4,9,33
0.952946,0.748493,-4.220000,3,8,34
0.948430,0.768976,-4.200000,8,13,36
0.943914,0.789230,-4.180000,9,17,42
0.941656,0.811201,-4.170000,9,18,38
0.941656,0.835060,-4.170000,10,20,42
0.937139,0.854799,-4.150000,14,22,44
0.932623,0.874310,-4.130000,6,15,39
0.930365,0.895765,-4.120000,5,11,41
0.925848,0.914875,-4.100000,2,13,32
0.925848,0.938334,-4.100000,5,13,35
0.923590,0.959446,-4.090000,6,14,36
0.919074,0.978041,-4.070000,7,16,40
0.919074,1.001328,-4.070000,10,20,42
0.916816,1.022097,-4.060000,9,22,40
0.916816,1.045327,-4.060000,7,20,39
0.916816,1.068556,-4.060000,9,22,40
0.916816,1.091786,-4.060000,9,24,44
0.916816,1.115015,-4.060000,12,24,47
0.912299,1.132637,-4.040000,6,18,42
0.910041,1.152892,-4.030000,6,15,41
0.910041,1.175950,-4.030000,5,18,38
0.910041,1.199007,-4.030000,7,20,41
0.910041,1.222065,-4.030000,10,22,43
0.905525,1.238944,-4.010000,7,20,41
0.905525,1.261887,-4.010000,8,24,41
0.905525,1.284831,-4.010000,8,23,43
0.905525,1.307774,-4.010000,8,24,41
0.905525,1.330717,-4.010000,5,20,36
1.202040,-1.306572,-5.190000,115,117,116
1.202040,-1.276878,-5.190000,116,119,116
1.202040,-1.247183,-5.190000,117,120,117
1.202040,-1.217488,-5.190000,117,120,119
1.202040,-1.187793,-5.190000,117,120,117
1.202040,-1.158098,-5.190000,116,119,116
1.202040,-1.128403,-5.190000,118,121,118
1.202040,-1.098709,-5.190000,116,118,118
1.202040,-1.069014,-5.190000,117,120,119
1.202040,-1.039319,-5.190000,117,120,117
1.202040,-1.009624,-5.190000,117,120,117
1.202040,-0.979929,-5.190000,117,120,117
1.202040,-0.950235,-5.190000,120,120,118
1.202040,-0.920540,-5.190000,118,118,116
1.202040,-0.890845,-5.190000,119,119,117
1.202040,-0.861150,-5.190000,119,119,119
1.202040,-0.831455,-5.190000,118,118,118
1.202040,-0.801760,-5.190000,116,116,116
1.202040,-0.772066,-5.190000,118,118,118
1.202040,-0.742371,-5.190000,116,117,114
1.202040,-0.712676,-5.190000,118,118,118
1.202040,-0.682981,-5.190000,115,115,115
1.202040,-0.653286,-5.190000,116,116,116
1.197407,-0.621188,-5.170000,116,116,116
1.202040,-0.593897,-5.190000,118,118,118
1.197407,-0.562028,-5.170000,116,116,116
1.192775,-0.530387,-5.150000,114,114,114
0.000000,-0.000000,-0.000000,115,116,113
0.000000,-0.000000,-0.000000,118,118,116
0.000000,-0.000000,-0.000000,116,117,114
0.000000,-0.000000,-0.000000,116,117,112
0.000000,-0.000000,-0.000000,122,124,123
0.000000,-0.000000,-0.000000,10,16,32
0.000000,-0.000000,-0.000000,6,9,31
0.000000,-0.000000,-0.000000,9,17,42
0.000000,-0.000000,-0.000000,15,22,52
0.000000,-0.000000,-0.000000,32,29,64
0.000000,-0.000000,-0.000000,32,31,54
0.000000,-0.000000,-0.000000,0,0,0
1.134874,-0.140178,-4.900000,39,40,51
1.192775,-0.117864,-5.150000,47,48,57
1.202040,-0.089084,-5.190000,116,116,116
1.202040,-0.059390,-5.190000,116,116,116
1.202040,-0.029695,-5.190000,116,116,116
1.202040,0.000000,-5.190000,118,118,118
1.197407,0.029580,-5.170000,116,116,118
1.192775,0.058932,-5.150000,115,115,115
0.000000,0.000000,-0.000000,114,114,116
0.000000,0.000000,-0.000000,113,113,115
0.000000,0.000000,-0.000000,113,113,115
0.000000,0.000000,-0.000000,40,38,48
0.000000,0.000000,-0.000000,44,43,50
0.000000,0.000000,-0.000000,0,0,13
0.000000,0.000000,-0.000000,0,0,10
0.000000,0.000000,-0.000000,0,0,13
0.000000,0.000000,-0.000000,0,0,15
0.000000,0.000000,-0.000000,0,0,16
0.000000,0.000000,-0.000000,0,0,11
0.000000,0.000000,-0.000000,5,1,25
1.192775,0.441990,-5.150000,20,17,23
1.197407,0.473286,-5.170000,67,64,67
1.197407,0.502867,-5.170000,63,60,66
1.197407,0.532447,-5.170000,60,57,62
1.197407,0.562028,-5.170000,57,54,60
1.197407,0.591608,-5.170000,55,52,58
1.197407,0.621188,-5.170000,52,48,54
1.197407,0.650769,-5.170000,49,47,50
1.197407,0.680349,-5.170000,44,40,46
1.014438,0.601449,-4.380000,42,36,40
1.005174,0.620788,-4.340000,41,38,42
0.995909,0.639669,-4.300000,37,33,43
0.991277,0.661182,-4.280000,15,16,39
0.986645,0.682466,-4.260000,9,12,36
0.986645,0.706840,-4.260000,7,9,36
0.984329,0.729497,-4.250000,5,10,36
0.975065,0.746719,-4.210000,6,11,37
0.972749,0.768976,-4.200000,10,15,38
0.968117,0.789230,-4.180000,12,20,42
0.965801,0.811201,-4.170000,12,20,40
0.961168,0.831055,-4.150000,16,26,48
0.956536,0.850680,-4.130000,18,25,50
0.954220,0.872193,-4.120000,12,19,44
0.951904,0.893591,-4.110000,8,17,44
0.947272,0.912644,-4.090000,4,15,34
0.947272,0.936045,-4.090000,4,11,34
0.942640,0.954755,-4.070000,6,13,38
0.942640,0.978041,-4.070000,5,18,38
0.940324,0.998868,-4.060000,9,19,43
0.940324,1.022097,-4.060000,10,22,43
0.940324,1.045327,-4.060000,10,23,41
0.940324,1.068556,-4.060000,10,22,43
0.938008,1.089096,-4.050000,10,22,43
0.935692,1.109522,-4.040000,10,22,45
0.933376,1.129834,-4.030000,5,17,40
0.933376,1.152892,-4.030000,6,13,38
0.933376,1.175950,-4.030000,3,13,37
0.928743,1.193057,-4.010000,9,21,42
0.928743,1.216000,-4.010000,10,22,43
0.928743,1.238944,-4.010000,9,22,40
0.928743,1.261887,-4.010000,7,22,42
0.928743,1.284831,-4.010000,9,24,44
0.928743,1.307774,-4.010000,9,25,40
0.928743,1.330717,-4.010000,7,23,38
1.236838,-1.311607,-5.210000,115,117,116
1.236838,-1.281798,-5.210000,115,118,114
1.232091,-1.247183,-5.190000,115,118,114
1.232091,-1.217488,-5.190000,116,119,116
1.232091,-1.187793,-5.190000,117,120,117
1.232091,-1.158098,-5.190000,116,119,116
1.232091,-1.128403,-5.190000,116,119,116
1.232091,-1.098709,-5.190000,116,119,116
1.232091,-1.069014,-5.190000,117,120,119
1.232091,-1.039319,-5.190000,117,120,117
1.232091,-1.009624,-5.190000,118,121,118
1.232091,-0.979929,-5.190000,117,120,117
1.232091,-0.950235,-5.190000,117,120,117
1.232091,-0.920540,-5.190000,120,120,118
1.232091,-0.890845,-5.190000,119,119,117
1.232091,-0.861150,-5.190000,119,119,117
1.232091,-0.831455,-5.190000,119,119,117
1.232091,-0.801760,-5.190000,120,120,120
1.232091,-0.772066,-5.190000,116,116,116
1.232091,-0.742371,-5.190000,118,118,116
1.232091,-0.712676,-5.190000,119,119,119
1.232091,-0.682981,-5.190000,119,119,119
1.227343,-0.650769,-5.170000,119,119,119
1.227343,-0.621188,-5.170000,116,117,114
1.227343,-0.591608,-5.170000,118,118,118
1.227343,-0.562028,-5.170000,116,116,116
0.000000,-0.000000,-0.000000,116,116,116
0.000000,-0.000000,-0.000000,118,118,116
0.000000,-0.000000,-0.000000,116,117,114
0.000000,-0.000000,-0.000000,116,117,114
0.000000,-0.000000,-0.000000,116,117,114
0.000000,-0.000000,-0.000000,121,121,121
0.000000,-0.000000,-0.000000,7,7,16
0.000000,-0.000000,-0.000000,0,0,13
0.000000,-0.000000,-0.000000,0,0,17
0.000000,-0.000000,-0.000000,0,0,16
0.000000,-0.000000,-0.000000,0,0,15
0.000000,-0.000000,-0.000000,0,0,12
0.000000,-0.000000,-0.000000,0,0,14
1.020807,-0.123013,-4.300000,35,34,39
1.227343,-0.118322,-5.170000,8,7,23
1.232091,-0.089084,-5.190000,116,116,116
1.232091,-0.059390,-5.190000,118,118,118
1.232091,-0.029695,-5.190000,118,118,118
1.227343,0.000000,-5.170000,116,116,116
1.227343,0.029580,-5.170000,116,116,118
1.222595,0.058932,-5.150000,115,115,115
0.000000,0.000000,-0.000000,115,115,117
0.000000,0.000000,-0.000000,115,115,115
0.000000,0.000000,-0.000000,113,113,115
0.000000,0.000000,-0.000000,34,32,42
0.000000,0.000000,-0.000000,50,49,56
0.000000,0.000000,-0.000000,0,0,15
0.000000,0.000000,-0.000000,0,0,16
0.000000,0.000000,-0.000000,0,0,20
0.000000,0.000000,-0.000000,0,0,19
0.000000,0.000000,-0.000000,0,0,18
0.000000,0.000000,-0.000000,0,0,11
0.000000,0.000000,-0.000000,0,0,21
0.000000,0.000000,-0.000000,1,0,19
1.227343,0.473286,-5.170000,6,3,20
1.227343,0.502867,-5.170000,67,64,67
1.227343,0.532447,-5.170000,62,59,65
1.227343,0.562028,-5.170000,60,56,64
1.227343,0.591608,-5.170000,55,52,58
1.227343,0.621188,-5.170000,54,51,56
1.227343,0.650769,-5.170000,47,44,49
1.222595,0.677717,-5.150000,45,41,47
1.039799,0.601449,-4.380000,40,37,42
1.027929,0.619357,-4.330000,40,37,40
1.018433,0.638181,-4.290000,28,28,41
1.016059,0.661182,-4.280000,8,11,35
1.016059,0.685670,-4.280000,13,15,44
1.011311,0.706840,-4.260000,14,16,45
1.006563,0.727781,-4.240000,13,18,44
0.997067,0.744945,-4.200000,9,14,37
0.992320,0.765314,-4.180000,8,13,34
0.989946,0.787342,-4.170000,5,13,33
0.987572,0.809256,-4.160000,12,20,42
0.985198,0.831055,-4.150000,13,23,44
0.980450,0.850680,-4.130000,14,21,46
0.975702,0.870076,-4.110000,9,17,42
0.970954,0.889243,-4.090000,7,19,45
0.970954,0.912644,-4.090000,4,15,36
0.966206,0.931468,-4.070000,4,14,38
0.963832,0.952409,-4.060000,6,13,38
0.963832,0.975638,-4.060000,3,13,35
0.963832,0.998868,-4.060000,7,16,40
0.963832,1.022097,-4.060000,4,16,39
0.963832,1.045327,-4.060000,7,20,41
0.961458,1.065924,-4.050000,7,16,40
0.959084,1.086407,-4.040000,4,15,36
0.956710,1.106776,-4.030000,5,17,40
0.956710,1.129834,-4.030000,5,17,43
0.956710,1.152892,-4.030000,3,13,37
0.956710,1.175950,-4.030000,0,9,30
0.951962,1.193057,-4.010000,3,15,36
0.951962,1.216000,-4.010000,6,19,40
0.951962,1.238944,-4.010000,5,18,38
0.951962,1.261887,-4.010000,7,22,42
0.951962,1.284831,-4.010000,8,23,45
0.951962,1.307774,-4.010000,12,25,43
0.951962,1.330717,-4.010000,10,24,37
0.949588,1.350285,-4.000000,7,22,40
1.267005,-1.311607,-5.210000,116,118,118
1.267005,-1.281798,-5.210000,116,118,118
1.267005,-1.251989,-5.210000,117,120,119
1.267005,-1.222180,-5.210000,116,119,116
1.262142,-1.187793,-5.190000,117,120,117
1.262142,-1.158098,-5.190000,118,121,118
1.262142,-1.128403,-5.190000,117,120,117
1.262142,-1.098709,-5.190000,117,120,117
1.262142,-1.069014,-5.190000,117,120,119
1.262142,-1.039319,-5.190000,117,120,119
1.262142,-1.009624,-5.190000,116,119,116
1.262142,-0.979929,-5.190000,117,120,117
1.262142,-0.950235,-5.190000,118,121,118
1.262142,-0.920540,-5.190000,117,120,117
1.262142,-0.890845,-5.190000,119,119,117
1.262142,-0.861150,-5.190000,118,118,116
1.262142,-0.831455,-5.190000,119,119,117
1.262142,-0.801760,-5.190000,116,116,116
1.262142,-0.772066,-5.190000,118,118,118
1.262142,-0.742371,-5.190000,118,118,118
1.262142,-0.712676,-5.190000,118,118,118
1.257278,-0.680349,-5.170000,118,118,118
1.257278,-0.650769,-5.170000,116,118,118
1.257278,-0.621188,-5.170000,118,118,116
1.257278,-0.591608,-5.170000,118,118,118
1.252414,-0.559853,-5.150000,118,118,118
0.000000,-0.000000,-0.000000,118,118,118
0.000000,-0.000000,-0.000000,116,116,116
0.000000,-0.000000,-0.000000,116,116,116
0.000000,-0.000000,-0.000000,118,118,116
0.000000,-0.000000,-0.000000,121,121,119
0.000000,-0.000000,-0.000000,0,0,12
0.000000,-0.000000,-0.000000,6,3,20
0.000000,-0.000000,-0.000000,0,0,15
0.000000,-0.000000,-0.000000,0,0,15
0.000000,-0.000000,-0.000000,0,0,14
0.000000,-0.000000,-0.000000,0,0,15
0.000000,-0.000000,-0.000000,0,0,17
0.000000,-0.000000,-0.000000,21,20,27
0.000000,-0.000000,-0.000000,28,26,36
1.262142,-0.118779,-5.190000,3,1,18
1.262142,-0.089084,-5.190000,125,125,125
1.262142,-0.059390,-5.190000,119,119,119
1.262142,-0.029695,-5.190000,120,120,120
1.257278,0.000000,-5.170000,119,119,119
1.257278,0.029580,-5.170000,118,117,120
1.257278,0.059161,-5.170000,119,119,119
0.000000,0.000000,-0.000000,116,116,118
0.000000,0.000000,-0.000000,116,116,118
0.000000,0.000000,-0.000000,74,81,81
0.000000,0.000000,-0.000000,36,35,44
0.000000,0.000000,-0.000000,43,42,49
0.000000,0.000000,-0.000000,34,31,39
0.000000,0.000000,-0.000000,0,0,18
0.000000,0.000000,-0.000000,0,0,17
0.000000,0.000000,-0.000000,0,0,15
0.000000,0.000000,-0.000000,0,0,14
0.000000,0.000000,-0.000000,0,0,14
0.000000,0.000000,-0.000000,0,0,20
0.000000,0.000000,-0.000000,0,0,13
1.252414,0.471455,-5.150000,2,0,20
1.257278,0.502867,-5.170000,73,70,73
1.257278,0.532447,-5.170000,67,64,67
1.257278,0.562028,-5.170000,59,55,61
1.257278,0.591608,-5.170000,53,50,55
1.257278,0.621188,-5.170000,49,47,50
1.257278,0.650769,-5.170000,46,43,48
1.252414,0.677717,-5.150000,45,42,45
1.065160,0.601449,-4.380000,41,38,46
1.053001,0.619357,-4.330000,38,34,40
1.043273,0.638181,-4.290000,20,22,37
1.040841,0.661182,-4.280000,9,12,36
1.040841,0.685670,-4.280000,10,12,41
1.035977,0.706840,-4.260000,17,19,48
1.026250,0.724348,-4.220000,10,15,38
1.021386,0.744945,-4.200000,6,12,33
1.016522,0.765314,-4.180000,8,13,34
1.014091,0.787342,-4.170000,7,15,35
1.009227,0.807310,-4.150000,9,19,43
1.004363,0.827050,-4.130000,10,20,44
1.001931,0.848620,-4.120000,9,21,44
0.997067,0.867959,-4.100000,9,19,43
0.994636,0.889243,-4.090000,10,22,45
0.989772,0.908181,-4.070000,9,19,43
0.987340,0.929179,-4.060000,6,15,39
0.987340,0.952409,-4.060000,9,17,42
0.987340,0.975638,-4.060000,8,16,40
0.987340,0.998868,-4.060000,9,17,42
0.984908,1.019580,-4.050000,7,19,45
0.984908,1.042752,-4.050000,7,16,40
0.982476,1.063292,-4.040000,6,13,38
0.982476,1.086407,-4.040000,2,12,36
0.980044,1.106776,-4.030000,6,15,39
0.980044,1.129834,-4.030000,2,13,41
0.980044,1.152892,-4.030000,6,15,41
0.980044,1.175950,-4.030000,1,11,35
0.975181,1.193057,-4.010000,1,11,33
0.975181,1.216000,-4.010000,0,13,34
0.975181,1.238944,-4.010000,6,18,42
0.975181,1.261887,-4.010000,6,21,41
0.975181,1.284831,-4.010000,6,21,41
0.975181,1.307774,-4.010000,6,19,38
0.975181,1.330717,-4.010000,12,25,41
0.972749,1.350285,-4.000000,9,25,42
1.297172,-1.311607,-5.210000,115,117,116
1.297172,-1.281798,-5.210000,115,117,116
1.297172,-1.251989,-5.210000,116,118,118
1.297172,-1.222180,-5.210000,116,119,116
1.297172,-1.192370,-5.210000,116,119,116
1.292193,-1.158098,-5.190000,116,119,116
1.292193,-1.128403,-5.190000,115,117,116
1.292193,-1.098709,-5.190000,115,117,116
1.292193,-1.069014,-5.190000,117,120,119
1.292193,-1.039319,-5.190000,117,120,119
1.292193,-1.009624,-5.190000,117,120,119
1.292193,-0.979929,-5.190000,117,120,117
1.292193,-0.950235,-5.190000,117,120,117
1.292193,-0.920540,-5.190000,117,120,117
1.292193,-0.890845,-5.190000,119,119,117
1.292193,-0.861150,-5.190000,119,119,117
1.292193,-0.831455,-5.190000,119,119,117
1.292193,-0.801760,-5.190000,119,119,117
1.292193,-0.772066,-5.190000,119,119,119
1.292193,-0.742371,-5.190000,118,118,118
1.292193,-0.712676,-5.190000,119,119,119
1.292193,-0.682981,-5.190000,119,119,119
1.287213,-0.650769,-5.170000,118,118,118
1.287213,-0.621188,-5.170000,118,118,116
1.287213,-0.591608,-5.170000,119,119,119
1.282233,-0.559853,-5.150000,120,120,120
0.000000,-0.000000,-0.000000,120,120,120
0.000000,-0.000000,-0.000000,119,119,119
0.000000,-0.000000,-0.000000,119,119,119
0.000000,-0.000000,-0.000000,122,123,120
0.000000,-0.000000,-0.000000,21,19,33
0.000000,-0.000000,-0.000000,0,0,15
0.000000,-0.000000,-0.000000,0,0,14
0.000000,-0.000000,-0.000000,0,0,16
0.000000,-0.000000,-0.000000,0,0,20
0.000000,-0.000000,-0.000000,0,0,16
0.000000,-0.000000,-0.000000,0,0,12
0.000000,-0.000000,-0.000000,0,0,17
0.000000,-0.000000,-0.000000,48,43,59
0.000000,-0.000000,-0.000000,31,30,39
1.292193,-0.118779,-5.190000,0,0,14
1.292193,-0.089084,-5.190000,37,37,39
1.292193,-0.059390,-5.190000,118,117,120
1.292193,-0.029695,-5.190000,119,119,119
1.287213,0.000000,-5.170000,120,120,120
1.287213,0.029580,-5.170000,119,118,121
1.287213,0.059161,-5.170000,119,119,119
1.277254,0.088055,-5.130000,118,118,118
0.000000,0.000000,-0.000000,116,116,118
0.000000,0.000000,-0.000000,109,113,116
0.000000,0.000000,-0.000000,13,9,22
0.000000,0.000000,-0.000000,0,0,5
0.000000,0.000000,-0.000000,42,41,48
0.000000,0.000000,-0.000000,0,0,18
0.000000,0.000000,-0.000000,1,0,27
0.000000,0.000000,-0.000000,0,0,19
0.000000,0.000000,-0.000000,0,0,17
0.000000,0.000000,-0.000000,0,0,18
0.000000,0.000000,-0.000000,0,0,20
0.000000,0.000000,-0.000000,0,0,13
0.000000,0.000000,-0.000000,0,0,17
1.287213,0.502867,-5.170000,5,0,18
1.287213,0.532447,-5.170000,62,59,63
1.287213,0.562028,-5.170000,56,54,57
1.287213,0.591608,-5.170000,53,50,53
1.287213,0.621188,-5.170000,50,48,51
1.287213,0.650769,-5.170000,46,43,46
1.267295,0.669822,-5.090000,45,42,45
1.088031,0.600076,-4.370000,39,36,41
1.078072,0.619357,-4.330000,38,34,42
1.068113,0.638181,-4.290000,15,19,36
1.065623,0.661182,-4.280000,9,14,37
1.065623,0.685670,-4.280000,9,12,38
1.058154,0.705181,-4.250000,2,10,35
1.048195,0.722631,-4.210000,11,16,40
1.040725,0.741398,-4.180000,9,14,35
1.038236,0.763483,-4.170000,12,15,36
1.035746,0.785454,-4.160000,9,18,38
1.028277,0.803420,-4.130000,7,16,40
1.025787,0.825047,-4.120000,9,19,41
1.023297,0.846560,-4.110000,11,24,44
1.018317,0.865842,-4.090000,9,21,42
1.013338,0.884894,-4.070000,5,17,40
1.010848,0.905950,-4.060000,8,17,44
1.010848,0.929179,-4.060000,9,16,44
1.008358,0.950063,-4.050000,14,21,46
1.008358,0.973235,-4.050000,15,23,47
1.008358,0.996407,-4.050000,15,23,47
1.008358,1.019580,-4.050000,11,23,46
1.005869,1.040177,-4.040000,4,14,40
1.005869,1.063292,-4.040000,6,13,38
1.003379,1.083718,-4.030000,0,10,34
1.003379,1.106776,-4.030000,1,10,37
1.003379,1.129834,-4.030000,8,17,46
1.003379,1.152892,-4.030000,1,10,39
0.998399,1.170114,-4.010000,3,13,37
0.998399,1.193057,-4.010000,0,13,34
0.998399,1.216000,-4.010000,0,10,34
0.998399,1.238944,-4.010000,2,14,37
0.998399,1.261887,-4.010000,6,21,41
0.998399,1.284831,-4.010000,11,24,44
0.998399,1.307774,-4.010000,9,21,42
0.995909,1.327399,-4.000000,11,22,41
0.995909,1.350285,-4.000000,8,24,41
1.327339,-1.311607,-5.210000,114,116,115
1.327339,-1.281798,-5.210000,115,117,116
1.327339,-1.251989,-5.210000,115,117,116
1.327339,-1.222180,-5.210000,116,119,116
1.327339,-1.192370,-5.210000,117,120,117
1.327339,-1.162561,-5.210000,117,120,117
1.322244,-1.128403,-5.190000,116,118,118
1.322244,-1.098709,-5.190000,117,120,119
1.322244,-1.069014,-5.190000,116,118,118
1.322244,-1.039319,-5.190000,118,121,120
1.322244,-1.009624,-5.190000,117,120,119
1.322244,-0.979929,-5.190000,118,121,118
1.322244,-0.950235,-5.190000,118,121,118
1.322244,-0.920540,-5.190000,119,122,119
1.322244,-0.890845,-5.190000,120,120,118
1.322244,-0.861150,-5.190000,120,120,118
1.322244,-0.831455,-5.190000,119,119,117
1.322244,-0.801760,-5.190000,119,119,117
1.322244,-0.772066,-5.190000,119,119,119
1.322244,-0.742371,-5.190000,119,119,119
1.322244,-0.712676,-5.190000,119,119,119
1.322244,-0.682981,-5.190000,119,119,119
1.317148,-0.650769,-5.170000,118,118,116
1.317148,-0.621188,-5.170000,119,119,117
1.317148,-0.591608,-5.170000,118,118,118
0.000000,-0.000000,-0.000000,118,118,118
0.000000,-0.000000,-0.000000,120,120,120
0.000000,-0.000000,-0.000000,118,118,118
0.000000,-0.000000,-0.000000,119,119,119
0.000000,-0.000000,-0.000000,29,27,41
0.000000,-0.000000,-0.000000,0,0,13
0.000000,-0.000000,-0.000000,0,0,10
0.000000,-0.000000,-0.000000,0,0,13
0.000000,-0.000000,-0.000000,0,0,13
0.000000,-0.000000,-0.000000,0,0,15
0.000000,-0.000000,-0.000000,0,0,14
0.000000,-0.000000,-0.000000,0,0,10
0.000000,-0.000000,-0.000000,0,0,12
0.000000,-0.000000,-0.000000,3,0,11
1.317148,-0.147902,-5.170000,0,0,12
1.322244,-0.118779,-5.190000,6,3,22
1.322244,-0.089084,-5.190000,83,82,85
1.322244,-0.059390,-5.190000,122,122,122
1.322244,-0.029695,-5.190000,122,122,122
1.317148,0.000000,-5.170000,121,121,121
1.317148,0.029580,-5.170000,121,121,121
1.317148,0.059161,-5.170000,120,120,120
1.312053,0.088398,-5.150000,119,119,119
0.000000,0.000000,-0.000000,119,119,119
0.000000,0.000000,-0.000000,118,118,118
0.000000,0.000000,-0.000000,42,39,47
0.000000,0.000000,-0.000000,12,9,26
0.000000,0.000000,-0.000000,51,50,59
0.000000,0.000000,-0.000000,0,0,21
0.000000,0.000000,-0.000000,0,0,21
0.000000,0.000000,-0.000000,0,0,14
0.000000,0.000000,-0.000000,0,0,12
0.000000,0.000000,-0.000000,0,0,16
0.000000,0.000000,-0.000000,0,0,13
0.000000,0.000000,-0.000000,0,0,12
0.000000,0.000000,-0.000000,0,0,13
1.317148,0.502867,-5.170000,0,0,9
1.317148,0.532447,-5.170000,62,59,63
1.317148,0.562028,-5.170000,57,55,58
1.317148,0.591608,-5.170000,53,50,53
1.317148,0.621188,-5.170000,50,48,51
1.317148,0.650769,-5.170000,46,43,46
1.291671,0.667190,-5.070000,44,41,44
1.113334,0.600076,-4.370000,39,36,39
1.105691,0.620788,-4.340000,35,32,40
1.092953,0.638181,-4.290000,12,15,34
1.090405,0.661182,-4.280000,11,17,38
1.090405,0.685670,-4.280000,6,12,35
1.082762,0.705181,-4.250000,0,8,32
1.070024,0.720915,-4.200000,8,13,36
1.064928,0.741398,-4.180000,10,16,36
1.062381,0.763483,-4.170000,13,16,38
1.057285,0.783566,-4.150000,9,17,40
1.052190,0.803420,-4.130000,8,18,40
1.049642,0.825047,-4.120000,10,22,43
1.044547,0.844500,-4.100000,9,21,42
1.041999,0.865842,-4.090000,10,22,45
1.036904,0.884894,-4.070000,11,21,45
1.034356,0.905950,-4.060000,9,19,43
1.031809,0.926891,-4.050000,11,18,45
1.031809,0.950063,-4.050000,14,22,44
1.031809,0.973235,-4.050000,13,20,45
1.031809,0.996407,-4.050000,8,17,44
1.029261,1.017062,-4.040000,5,19,42
1.029261,1.040177,-4.040000,3,13,39
1.026713,1.060660,-4.030000,7,15,39
1.026713,1.083718,-4.030000,5,12,39
1.026713,1.106776,-4.030000,5,12,39
1.026713,1.129834,-4.030000,3,13,39
1.026713,1.152892,-4.030000,0,8,36
1.021618,1.170114,-4.010000,2,12,36
1.021618,1.193057,-4.010000,5,18,38
1.021618,1.216000,-4.010000,6,15,39
1.019070,1.235854,-4.000000,1,11,35
1.019070,1.258740,-4.000000,0,10,36
1.019070,1.281627,-4.000000,7,17,38
1.019070,1.304513,-4.000000,9,21,42
1.019070,1.327399,-4.000000,9,20,39
1.019070,1.350285,-4.000000,7,22,40
1.357506,-1.311607,-5.210000,115,117,116
1.357506,-1.281798,-5.210000,116,118,118
1.357506,-1.251989,-5.210000,116,118,118
1.357506,-1.222180,-5.210000,116,118,118
1.357506,-1.192370,-5.210000,116,119,116
1.357506,-1.162561,-5.210000,116,118,118
1.357506,-1.132752,-5.210000,116,118,118
1.357506,-1.102943,-5.210000,116,118,118
1.357506,-1.073133,-5.210000,117,120,119
1.352294,-1.039319,-5.190000,116,119,116
1.352294,-1.009624,-5.190000,117,120,119
1.352294,-0.979929,-5.190000,117,120,117
1.352294,-0.950235,-5.190000,117,120,117
1.352294,-0.920540,-5.190000,117,120,117
1.352294,-0.890845,-5.190000,120,120,118
1.352294,-0.861150,-5.190000,120,120,118
1.352294,-0.831455,-5.190000,120,120,118
1.352294,-0.801760,-5.190000,118,118,116
1.352294,-0.772066,-5.190000,119,119,117
1.352294,-0.742371,-5.190000,119,119,119
1.352294,-0.712676,-5.190000,120,120,120
1.352294,-0.682981,-5.190000,119,119,119
1.347083,-0.650769,-5.170000,117,120,117
1.347083,-0.621188,-5.170000,120,120,118
1.341872,-0.589319,-5.150000,120,120,118
0.000000,-0.000000,-0.000000,120,120,118
0.000000,-0.000000,-0.000000,120,120,120
0.000000,-0.000000,-0.000000,120,120,120
0.000000,-0.000000,-0.000000,128,128,126
0.000000,-0.000000,-0.000000,23,22,31
0.000000,-0.000000,-0.000000,0,0,10
0.000000,-0.000000,-0.000000,0,0,11
0.000000,-0.000000,-0.000000,0,0,9
0.000000,-0.000000,-0.000000,0,0,12
0.000000,-0.000000,-0.000000,0,0,16
0.000000,-0.000000,-0.000000,0,0,16
0.000000,-0.000000,-0.000000,0,0,12
0.000000,-0.000000,-0.000000,0,0,13
0.000000,-0.000000,-0.000000,0,0,2
1.347083,-0.147902,-5.170000,24,22,37
1.352294,-0.118779,-5.190000,19,22,30
1.352294,-0.089084,-5.190000,122,122,122
1.352294,-0.059390,-5.190000,123,123,123
1.352294,-0.029695,-5.190000,122,122,122
1.347083,0.000000,-5.170000,122,122,122
1.347083,0.029580,-5.170000,120,120,120
1.347083,0.059161,-5.170000,119,119,119
1.347083,0.088741,-5.170000,119,119,119
1.341872,0.117864,-5.150000,118,118,118
0.000000,0.000000,-0.000000,119,119,119
0.000000,0.000000,-0.000000,119,118,121
0.000000,0.000000,-0.000000,71,71,69
0.000000,0.000000,-0.000000,16,15,22
0.000000,0.000000,-0.000000,6,2,26
0.000000,0.000000,-0.000000,0,0,13
0.000000,0.000000,-0.000000,0,0,11
0.000000,0.000000,-0.000000,0,0,10
0.000000,0.000000,-0.000000,0,0,19
0.000000,0.000000,-0.000000,0,0,16
0.000000,0.000000,-0.000000,0,0,13
0.000000,0.000000,-0.000000,0,0,12
1.347083,0.502867,-5.170000,0,0,7
1.347083,0.532447,-5.170000,56,54,57
1.347083,0.562028,-5.170000,56,54,57
1.347083,0.591608,-5.170000,55,53,54
1.347083,0.621188,-5.170000,49,47,50
1.347083,0.650769,-5.170000,47,45,45
1.321028,0.667190,-5.070000,41,38,42
1.136032,0.598703,-4.360000,40,37,40
1.130820,0.620788,-4.340000,33,31,41
1.115187,0.636694,-4.280000,14,18,35
1.115187,0.661182,-4.280000,9,14,35
1.115187,0.685670,-4.280000,3,8,31
1.104765,0.703521,-4.240000,1,6,29
1.094342,0.720915,-4.200000,1,6,27
1.089131,0.741398,-4.180000,2,7,28
1.086526,0.763483,-4.170000,6,12,35
1.081314,0.783566,-4.150000,9,17,42
1.076103,0.803420,-4.130000,10,20,42
1.073498,0.825047,-4.120000,9,21,44
1.068287,0.844500,-4.100000,7,17,38
1.065681,0.865842,-4.090000,4,16,39
1.057864,0.882720,-4.060000,2,12,34
1.057864,0.905950,-4.060000,6,15,39
1.055259,0.926891,-4.050000,5,12,39
1.055259,0.950063,-4.050000,6,16,37
1.055259,0.973235,-4.050000,6,15,39
1.052653,0.993947,-4.040000,11,21,47
1.052653,1.017062,-4.040000,6,20,43
1.052653,1.040177,-4.040000,0,9,36
1.050048,1.060660,-4.030000,1,11,35
1.050048,1.083718,-4.030000,1,8,36
1.050048,1.106776,-4.030000,0,4,31
1.050048,1.129834,-4.030000,1,8,36
1.044836,1.147170,-4.010000,0,6,35
1.044836,1.170114,-4.010000,0,10,34
1.044836,1.193057,-4.010000,0,11,35
1.042231,1.212968,-4.000000,0,13,36
1.042231,1.235854,-4.000000,2,12,36
1.042231,1.258740,-4.000000,1,10,37
1.042231,1.281627,-4.000000,2,12,34
1.042231,1.304513,-4.000000,4,17,37
1.042231,1.327399,-4.000000,6,19,38
1.039625,1.346909,-3.990000,7,22,40
1.387672,-1.311607,-5.210000,112,115,114
1.387672,-1.281798,-5.210000,115,117,116
1.387672,-1.251989,-5.210000,115,117,116
1.387672,-1.222180,-5.210000,116,118,118
1.392999,-1.196948,-5.230000,118,121,120
1.392999,-1.167024,-5.230000,116,118,118
1.387672,-1.132752,-5.210000,116,118,118
1.387672,-1.102943,-5.210000,116,118,118
1.387672,-1.073133,-5.210000,117,120,119
1.387672,-1.043324,-5.210000,116,119,116
1.382345,-1.009624,-5.190000,117,120,119
1.382345,-0.979929,-5.190000,117,120,117
1.382345,-0.950235,-5.190000,118,121,118
1.382345,-0.920540,-5.190000,120,120,118
1.382345,-0.890845,-5.190000,119,119,117
1.382345,-0.861150,-5.190000,119,119,119
1.382345,-0.831455,-5.190000,120,120,118
1.382345,-0.801760,-5.190000,120,120,120
1.382345,-0.772066,-5.190000,121,121,119
1.382345,-0.742371,-5.190000,120,120,120
1.382345,-0.712676,-5.190000,119,119,119
1.382345,-0.682981,-5.190000,119,119,119
1.382345,-0.653286,-5.190000,119,122,121
1.377019,-0.621188,-5.170000,121,121,121
1.371692,-0.589319,-5.150000,120,120,120
0.000000,-0.000000,-0.000000,120,120,118
0.000000,-0.000000,-0.000000,120,120,118
0.000000,-0.000000,-0.000000,120,120,120
0.000000,-0.000000,-0.000000,109,110,107
0.000000,-0.000000,-0.000000,9,7,19
0.000000,-0.000000,-0.000000,0,0,9
0.000000,-0.000000,-0.000000,0,0,11
0.000000,-0.000000,-0.000000,0,0,13
0.000000,-0.000000,-0.000000,0,0,16
0.000000,-0.000000,-0.000000,0,0,12
0.000000,-0.000000,-0.000000,0,0,13
0.000000,-0.000000,-0.000000,0,0,12
0.000000,-0.000000,-0.000000,0,0,16
0.000000,-0.000000,-0.000000,0,0,9
1.382345,-0.148474,-5.190000,83,88,86
1.382345,-0.118779,-5.190000,121,121,121
1.382345,-0.089084,-5.190000,121,121,121
1.382345,-0.059390,-5.190000,121,121,121
1.382345,-0.029695,-5.190000,121,121,121
1.382345,0.000000,-5.190000,120,120,120
1.377019,0.029580,-5.170000,120,120,120
1.377019,0.059161,-5.170000,121,121,121
1.377019,0.088741,-5.170000,120,120,120
1.377019,0.118322,-5.170000,120,120,120
1.371692,0.147330,-5.150000,118,118,118
1.337066,0.172333,-5.020000,119,118,121
0.000000,0.000000,-0.000000,114,114,116
0.000000,0.000000,-0.000000,21,18,26
0.000000,0.000000,-0.000000,0,0,20
0.000000,0.000000,-0.000000,0,0,16
0.000000,0.000000,-0.000000,0,0,11
0.000000,0.000000,-0.000000,0,0,12
0.000000,0.000000,-0.000000,3,0,19
0.000000,0.000000,-0.000000,2,0,20
0.000000,0.000000,-0.000000,0,0,18
0.000000,0.000000,-0.000000,0,0,16
1.377019,0.502867,-5.170000,0,0,11
1.382345,0.534507,-5.190000,0,0,10
1.382345,0.564202,-5.190000,57,55,58
1.382345,0.593897,-5.190000,54,52,52
1.377019,0.621188,-5.170000,49,47,50
1.377019,0.650769,-5.170000,47,45,45
1.350384,0.667190,-5.070000,45,42,45
1.163940,0.600076,-4.370000,41,38,42
1.155950,0.620788,-4.340000,23,23,35
1.142632,0.638181,-4.290000,9,13,32
1.139969,0.661182,-4.280000,10,16,36
1.139969,0.685670,-4.280000,3,9,29
1.129315,0.703521,-4.240000,3,8,31
1.118661,0.720915,-4.200000,1,7,25
1.113334,0.741398,-4.180000,3,8,31
1.110671,0.763483,-4.170000,4,9,33
1.105344,0.783566,-4.150000,6,13,38
1.097353,0.801474,-4.120000,7,16,40
1.094690,0.823045,-4.110000,3,15,38
1.092026,0.844500,-4.100000,8,18,40
1.089363,0.865842,-4.090000,9,21,44
1.081372,0.882720,-4.060000,6,19,40
1.078709,0.903718,-4.050000,6,18,42
1.078709,0.926891,-4.050000,4,14,40
1.078709,0.950063,-4.050000,6,16,35
1.076045,0.970832,-4.040000,10,20,44
1.076045,0.993947,-4.040000,4,16,41
1.076045,1.017062,-4.040000,0,13,36
1.073382,1.037603,-4.030000,2,12,36
1.073382,1.060660,-4.030000,1,11,35
1.068055,1.078340,-4.010000,0,7,36
1.068055,1.101283,-4.010000,0,7,36
1.068055,1.124227,-4.010000,0,7,34
1.068055,1.147170,-4.010000,0,6,35
1.068055,1.170114,-4.010000,0,7,33
1.065392,1.190082,-4.000000,0,8,33
1.065392,1.212968,-4.000000,0,11,35
1.065392,1.235854,-4.000000,4,14,38
1.065392,1.258740,-4.000000,3,13,37
1.065392,1.281627,-4.000000,3,15,36
1.062728,1.301251,-3.990000,1,16,38
1.062728,1.324080,-3.990000,0,13,34
1.060065,1.343534,-3.980000,0,8,32
1.417839,-1.311607,-5.210000,113,118,116
1.417839,-1.281798,-5.210000,114,119,118
1.417839,-1.251989,-5.210000,116,118,118
1.423282,-1.226871,-5.230000,116,118,118
1.423282,-1.196948,-5.230000,117,120,117
1.423282,-1.167024,-5.230000,116,118,118
1.423282,-1.137100,-5.230000,116,118,118
1.417839,-1.102943,-5.210000,116,118,118
1.417839,-1.073133,-5.210000,117,120,119
1.417839,-1.043324,-5.210000,117,120,117
1.417839,-1.013515,-5.210000,117,120,119
1.417839,-0.983706,-5.210000,117,120,119
1.412396,-0.950235,-5.190000,117,120,117
1.412396,-0.920540,-5.190000,119,119,117
1.412396,-0.890845,-5.190000,120,120,118
1.412396,-0.861150,-5.190000,120,120,120
1.412396,-0.831455,-5.190000,119,119,119
1.412396,-0.801760,-5.190000,119,119,119
1.417839,-0.775041,-5.210000,119,119,117
1.417839,-0.745231,-5.210000,119,119,119
1.417839,-0.715422,-5.210000,119,119,119
1.417839,-0.685613,-5.210000,120,120,120
1.412396,-0.653286,-5.190000,117,120,119
1.412396,-0.623591,-5.190000,121,121,121
1.401511,-0.589319,-5.150000,119,119,119
0.000000,-0.000000,-0.000000,119,119,117
0.000000,-0.000000,-0.000000,120,120,118
0.000000,-0.000000,-0.000000,118,118,118
0.000000,-0.000000,-0.000000,48,51,48
0.000000,-0.000000,-0.000000,0,0,9
0.000000,-0.000000,-0.000000,0,0,13
0.000000,-0.000000,-0.000000,0,0,15
0.000000,-0.000000,-0.000000,2,0,18
0.000000,-0.000000,-0.000000,0,0,11
0.000000,-0.000000,-0.000000,0,0,13
0.000000,-0.000000,-0.000000,0,0,10
0.000000,-0.000000,-0.000000,0,0,15
0.000000,-0.000000,-0.000000,0,0,12
1.412396,-0.178169,-5.190000,21,15,24
1.412396,-0.148474,-5.190000,121,121,119
1.412396,-0.118779,-5.190000,121,121,121
1.412396,-0.089084,-5.190000,122,122,122
1.412396,-0.059390,-5.190000,121,121,121
1.412396,-0.029695,-5.190000,121,121,121
1.412396,0.000000,-5.190000,121,121,121
1.406954,0.029580,-5.170000,122,122,122
1.406954,0.059161,-5.170000,122,122,122
1.406954,0.088741,-5.170000,121,121,121
1.406954,0.118322,-5.170000,121,121,121
1.406954,0.147902,-5.170000,119,119,119
1.401511,0.176796,-5.150000,118,118,118
1.396068,0.205461,-5.130000,115,115,117
0.000000,0.000000,-0.000000,37,34,37
0.000000,0.000000,-0.000000,15,13,27
0.000000,0.000000,-0.000000,0,0,9
0.000000,0.000000,-0.000000,0,0,9
0.000000,0.000000,-0.000000,0,0,12
0.000000,0.000000,-0.000000,3,0,15
0.000000,0.000000,-0.000000,6,2,24
0.000000,0.000000,-0.000000,21,19,31
1.406954,0.473286,-5.170000,0,0,11
1.412396,0.504812,-5.190000,0,0,7
1.412396,0.534507,-5.190000,10,5,20
1.412396,0.564202,-5.190000,57,55,56
1.412396,0.593897,-5.190000,53,50,51
1.406954,0.621188,-5.170000,52,49,52
1.406954,0.650769,-5.170000,47,44,47
1.379740,0.667190,-5.070000,45,42,45
1.181079,0.595956,-4.340000,40,37,40
1.178358,0.619357,-4.330000,20,25,37
1.164751,0.636694,-4.280000,12,15,34
1.164751,0.661182,-4.280000,10,14,35
1.164751,0.685670,-4.280000,5,8,29
1.153865,0.703521,-4.240000,4,10,31
1.142980,0.720915,-4.200000,4,10,31
1.137537,0.741398,-4.180000,1,9,31
1.134816,0.763483,-4.170000,6,14,36
1.129373,0.783566,-4.150000,7,17,38
1.121209,0.801474,-4.120000,9,19,43
1.118487,0.823045,-4.110000,6,19,40
1.115766,0.844500,-4.100000,10,21,40
1.107602,0.861608,-4.070000,11,24,44
1.104880,0.882720,-4.060000,9,22,40
1.102159,0.903718,-4.050000,6,19,40
1.102159,0.926891,-4.050000,6,15,39
1.102159,0.950063,-4.050000,3,14,33
1.099438,0.970832,-4.040000,6,15,39
1.099438,0.993947,-4.040000,6,15,41
1.096716,1.014545,-4.030000,2,14,37
1.096716,1.037603,-4.030000,6,15,39
1.091274,1.055397,-4.010000,4,14,38
1.091274,1.078340,-4.010000,0,8,36
1.091274,1.101283,-4.010000,0,9,38
1.091274,1.124227,-4.010000,0,7,33
1.088552,1.144309,-4.000000,0,7,35
1.088552,1.167196,-4.000000,0,8,34
1.088552,1.190082,-4.000000,0,8,36
1.088552,1.212968,-4.000000,0,10,34
1.085831,1.232765,-3.990000,2,12,36
1.085831,1.255593,-3.990000,2,14,35
1.085831,1.278422,-3.990000,0,13,34
1.085831,1.301251,-3.990000,1,16,38
1.083109,1.320762,-3.980000,0,10,34
1.083109,1.343534,-3.980000,1,11,35
1.453565,-1.316642,-5.230000,111,116,114
1.453565,-1.286719,-5.230000,113,118,116
1.453565,-1.256795,-5.230000,114,116,115
1.453565,-1.226871,-5.230000,116,118,118
1.453565,-1.196948,-5.230000,116,119,116
1.453565,-1.167024,-5.230000,115,117,116
1.453565,-1.137100,-5.230000,116,118,118
1.453565,-1.107177,-5.230000,116,118,118
1.453565,-1.077253,-5.230000,116,119,116
1.453565,-1.047329,-5.230000,116,119,116
1.448006,-1.013515,-5.210000,116,118,118
1.448006,-0.983706,-5.210000,117,120,119
1.448006,-0.953896,-5.210000,118,121,118
1.448006,-0.924087,-5.210000,119,119,117
1.448006,-0.894278,-5.210000,120,120,120
1.442447,-0.861150,-5.190000,119,119,119
1.448006,-0.834659,-5.210000,120,120,120
1.448006,-0.804850,-5.210000,119,119,119
1.448006,-0.775041,-5.210000,119,119,119
1.448006,-0.745231,-5.210000,119,119,117
1.448006,-0.715422,-5.210000,120,120,120
1.448006,-0.685613,-5.210000,120,120,120
1.442447,-0.653286,-5.190000,120,120,120
1.442447,-0.623591,-5.190000,121,121,121
1.442447,-0.593897,-5.190000,120,120,120
0.000000,-0.000000,-0.000000,120,120,120
0.000000,-0.000000,-0.000000,120,120,120
0.000000,-0.000000,-0.000000,120,120,120
0.000000,-0.000000,-0.000000,33,35,41
0.000000,-0.000000,-0.000000,1,0,15
0.000000,-0.000000,-0.000000,0,0,15
0.000000,-0.000000,-0.000000,4,0,18
0.000000,-0.000000,-0.000000,5,2,21
0.000000,-0.000000,-0.000000,0,0,15
0.000000,-0.000000,-0.000000,0,0,16
0.000000,-0.000000,-0.000000,0,0,11
0.000000,-0.000000,-0.000000,0,0,11
1.442447,-0.207864,-5.190000,0,0,13
1.442447,-0.178169,-5.190000,62,60,61
1.442447,-0.148474,-5.190000,120,120,118
1.442447,-0.118779,-5.190000,120,120,120
1.442447,-0.089084,-5.190000,121,121,119
1.442447,-0.059390,-5.190000,121,121,121
1.442447,-0.029695,-5.190000,121,121,121
1.442447,0.000000,-5.190000,121,121,121
1.436889,0.029580,-5.170000,121,121,121
1.436889,0.059161,-5.170000,121,121,121
1.436889,0.088741,-5.170000,119,119,119
1.436889,0.118322,-5.170000,119,119,119
1.436889,0.147902,-5.170000,119,119,119
1.436889,0.177482,-5.170000,118,118,118
1.436889,0.207063,-5.170000,119,118,121
1.431330,0.235728,-5.150000,115,116,113
1.409096,0.261074,-5.070000,43,42,49
1.409096,0.290082,-5.070000,0,0,13
0.000000,0.000000,-0.000000,0,0,10
0.000000,0.000000,-0.000000,0,0,13
0.000000,0.000000,-0.000000,5,0,16
0.000000,0.000000,-0.000000,8,5,24
1.436889,0.443706,-5.170000,134,133,138
1.442447,0.475117,-5.190000,0,0,18
1.442447,0.504812,-5.190000,0,0,10
1.442447,0.534507,-5.190000,68,65,70
1.442447,0.564202,-5.190000,59,56,57
1.442447,0.593897,-5.190000,53,50,51
1.436889,0.621188,-5.170000,49,47,50
1.431330,0.648251,-5.150000,47,44,49
1.409096,0.667190,-5.070000,41,38,42
1.214546,0.600076,-4.370000,39,34,36
1.203429,0.619357,-4.330000,15,20,32
1.192312,0.638181,-4.290000,8,14,32
1.189533,0.661182,-4.280000,6,9,31
1.183974,0.682466,-4.260000,2,6,27
1.178416,0.703521,-4.240000,2,7,28
1.167299,0.720915,-4.200000,3,8,31
1.158961,0.739624,-4.170000,6,14,34
1.158961,0.763483,-4.170000,8,16,40
1.153402,0.783566,-4.150000,9,19,43
1.145064,0.801474,-4.120000,10,20,44
1.142285,0.823045,-4.110000,9,21,42
1.136726,0.842441,-4.090000,9,22,40
1.128389,0.859491,-4.060000,9,19,41
1.125609,0.880546,-4.050000,9,21,42
1.125609,0.903718,-4.050000,6,19,40
1.125609,0.926891,-4.050000,10,20,44
1.122830,0.947717,-4.040000,10,20,44
1.122830,0.970832,-4.040000,6,15,39
1.120051,0.991487,-4.030000,3,15,38
1.120051,1.014545,-4.030000,5,17,40
1.114492,1.032453,-4.010000,6,18,44
1.111713,1.052765,-4.000000,0,7,36
1.111713,1.075651,-4.000000,1,10,39
1.111713,1.098537,-4.000000,2,11,40
1.111713,1.121423,-4.000000,2,9,39
1.111713,1.144309,-4.000000,0,8,36
1.108934,1.164278,-3.990000,0,8,34
1.108934,1.187107,-3.990000,0,7,34
1.108934,1.209936,-3.990000,1,11,35
1.106154,1.229675,-3.980000,1,11,33
1.108934,1.255593,-3.990000,0,10,34
1.108934,1.278422,-3.990000,0,13,34
1.106154,1.297990,-3.980000,1,16,38
1.103375,1.317443,-3.970000,0,10,36
1.103375,1.340158,-3.970000,0,8,32
1.483847,-1.316642,-5.230000,113,118,116
1.483847,-1.286719,-5.230000,113,118,116
1.483847,-1.256795,-5.230000,115,117,116
1.483847,-1.226871,-5.230000,116,118,118
1.483847,-1.196948,-5.230000,114,119,118
1.483847,-1.167024,-5.230000,116,118,118
1.483847,-1.137100,-5.230000,117,120,119
1.483847,-1.107177,-5.230000,117,120,119
1.483847,-1.077253,-5.230000,117,120,117
1.483847,-1.047329,-5.230000,118,121,118
1.478173,-1.013515,-5.210000,117,120,119
1.478173,-0.983706,-5.210000,118,121,120
1.478173,-0.953896,-5.210000,118,121,120
1.478173,-0.924087,-5.210000,120,120,118
1.478173,-0.894278,-5.210000,120,120,120
1.478173,-0.864469,-5.210000,120,120,120
1.478173,-0.834659,-5.210000,120,120,120
1.478173,-0.804850,-5.210000,121,121,121
1.478173,-0.775041,-5.210000,120,120,120
1.478173,-0.745231,-5.210000,119,120,115
1.478173,-0.715422,-5.210000,120,120,120
1.478173,-0.685613,-5.210000,119,119,117
1.478173,-0.655804,-5.210000,120,120,120
1.472498,-0.623591,-5.190000,118,118,118
1.472498,-0.593897,-5.190000,119,119,119
1.472498,-0.564202,-5.190000,119,119,119
0.000000,-0.000000,-0.000000,120,120,120
0.000000,-0.000000,-0.000000,119,119,119
0.000000,-0.000000,-0.000000,8,5,24
0.000000,-0.000000,-0.000000,0,0,13
0.000000,-0.000000,-0.000000,1,0,17
0.000000,-0.000000,-0.000000,11,5,25
0.000000,-0.000000,-0.000000,48,43,59
0.000000,-0.000000,-0.000000,0,0,13
0.000000,-0.000000,-0.000000,0,0,14
1.472498,-0.267253,-5.190000,0,0,14
1.472498,-0.237559,-5.190000,0,0,14
1.472498,-0.207864,-5.190000,13,12,17
1.472498,-0.178169,-5.190000,122,123,120
1.472498,-0.148474,-5.190000,121,121,121
1.472498,-0.118779,-5.190000,121,121,121
1.472498,-0.089084,-5.190000,121,121,119
1.472498,-0.059390,-5.190000,122,122,122
1.472498,-0.029695,-5.190000,121,121,121
1.472498,0.000000,-5.190000,122,122,122
1.466824,0.029580,-5.170000,123,123,123
1.466824,0.059161,-5.170000,121,121,121
1.466824,0.088741,-5.170000,121,121,121
1.466824,0.118322,-5.170000,121,121,121
1.466824,0.147902,-5.170000,120,120,120
1.466824,0.177482,-5.170000,120,120,118
1.466824,0.207063,-5.170000,118,118,118
1.466824,0.236643,-5.170000,115,116,113
1.466824,0.266224,-5.170000,115,115,115
1.466824,0.295804,-5.170000,111,111,111
1.466824,0.325384,-5.170000,102,101,108
1.466824,0.354965,-5.170000,73,70,71
1.466824,0.384545,-5.170000,71,71,73
1.466824,0.414126,-5.170000,8,5,22
1.466824,0.443706,-5.170000,33,31,41
1.472498,0.475117,-5.190000,73,73,73
1.472498,0.504812,-5.190000,66,66,66
1.472498,0.534507,-5.190000,62,61,64
1.472498,0.564202,-5.190000,59,56,59
1.472498,0.593897,-5.190000,54,52,52
1.466824,0.621188,-5.170000,48,45,49
1.461150,0.648251,-5.150000,45,42,45
1.248361,0.579021,-4.400000,41,38,42
1.231338,0.595956,-4.340000,38,33,37
1.228501,0.619357,-4.330000,13,17,32
1.217152,0.638181,-4.290000,5,12,28
1.214315,0.661182,-4.280000,6,9,29
1.208640,0.682466,-4.260000,1,4,28
1.202966,0.703521,-4.240000,2,5,29
1.191617,0.720915,-4.200000,3,8,31
1.183106,0.739624,-4.170000,7,15,35
1.183106,0.763483,-4.170000,12,19,44
1.177431,0.783566,-4.150000,11,21,45
1.168920,0.801474,-4.120000,13,22,48
1.166083,0.823045,-4.110000,13,26,47
1.160408,0.842441,-4.090000,14,24,45
1.151897,0.859491,-4.060000,15,25,45
1.149059,0.880546,-4.050000,8,23,45
1.149059,0.903718,-4.050000,6,19,40
1.149059,0.926891,-4.050000,8,18,42
1.146222,0.947717,-4.040000,7,20,43
1.146222,0.970832,-4.040000,7,20,43
1.143385,0.991487,-4.030000,7,20,43
1.137711,1.009510,-4.010000,6,18,42
1.137711,1.032453,-4.010000,0,12,38
1.134874,1.052765,-4.000000,3,12,41
1.134874,1.075651,-4.000000,1,10,39
1.134874,1.098537,-4.000000,3,12,41
1.132036,1.118620,-3.990000,0,7,36
1.134874,1.144309,-4.000000,0,6,35
1.132036,1.164278,-3.990000,0,3,30
1.132036,1.187107,-3.990000,0,3,33
1.129199,1.206903,-3.980000,0,10,34
1.129199,1.229675,-3.980000,0,10,31
1.129199,1.252447,-3.980000,0,8,31
1.129199,1.275218,-3.980000,0,9,30
1.126362,1.294729,-3.970000,2,14,37
1.126362,1.317443,-3.970000,0,13,34
1.126362,1.340158,-3.970000,1,11,35
1.514130,-1.316642,-5.230000,113,118,116
1.514130,-1.286719,-5.230000,113,118,116
1.514130,-1.256795,-5.230000,115,117,116
1.514130,-1.226871,-5.230000,113,118,116
1.514130,-1.196948,-5.230000,114,119,118
1.514130,-1.167024,-5.230000,116,118,118
1.514130,-1.137100,-5.230000,116,118,118
1.514130,-1.107177,-5.230000,116,118,118
1.514130,-1.077253,-5.230000,117,120,117
1.514130,-1.047329,-5.230000,115,118,114
1.508340,-1.013515,-5.210000,116,119,116
1.508340,-0.983706,-5.210000,116,118,118
1.508340,-0.953896,-5.210000,118,121,120
1.508340,-0.924087,-5.210000,120,121,116
1.508340,-0.894278,-5.210000,119,119,119
1.508340,-0.864469,-5.210000,119,119,119
1.508340,-0.834659,-5.210000,120,120,118
1.508340,-0.804850,-5.210000,118,118,118
1.508340,-0.775041,-5.210000,119,118,121
1.508340,-0.745231,-5.210000,119,119,117
1.508340,-0.715422,-5.210000,121,121,121
1.508340,-0.685613,-5.210000,119,119,117
1.508340,-0.655804,-5.210000,120,120,120
1.502549,-0.623591,-5.190000,119,119,119
1.502549,-0.593897,-5.190000,120,120,120
1.502549,-0.564202,-5.190000,119,119,119
1.496759,-0.532447,-5.170000,118,118,118
0.000000,-0.000000,-0.000000,119,119,119
0.000000,-0.000000,-0.000000,28,32,37
0.000000,-0.000000,-0.000000,0,0,12
0.000000,-0.000000,-0.000000,3,0,20
0.000000,-0.000000,-0.000000,13,8,26
0.000000,-0.000000,-0.000000,164,163,172
1.502549,-0.326643,-5.190000,8,5,22
1.502549,-0.296948,-5.190000,0,0,18
1.502549,-0.267253,-5.190000,2,0,22
1.502549,-0.237559,-5.190000,118,116,114
1.502549,-0.207864,-5.190000,122,122,122
1.502549,-0.178169,-5.190000,121,121,121
1.502549,-0.148474,-5.190000,122,122,122
1.502549,-0.118779,-5.190000,122,122,122
1.502549,-0.089084,-5.190000,122,123,120
1.502549,-0.059390,-5.190000,122,122,122
1.502549,-0.029695,-5.190000,123,123,123
1.502549,0.000000,-5.190000,122,123,120
1.496759,0.029580,-5.170000,121,121,121
1.496759,0.059161,-5.170000,121,121,121
1.496759,0.088741,-5.170000,120,120,120
1.496759,0.118322,-5.170000,120,120,120
1.496759,0.147902,-5.170000,120,120,118
1.496759,0.177482,-5.170000,120,120,118
1.496759,0.207063,-5.170000,119,119,119
1.496759,0.236643,-5.170000,116,118,118
1.496759,0.266224,-5.170000,116,116,116
1.496759,0.295804,-5.170000,111,111,111
1.496759,0.325384,-5.170000,102,102,104
1.496759,0.354965,-5.170000,95,95,97
1.496759,0.384545,-5.170000,87,87,87
1.496759,0.414126,-5.170000,81,82,79
1.502549,0.445422,-5.190000,76,76,76
1.502549,0.475117,-5.190000,72,72,72
1.502549,0.504812,-5.190000,66,66,66
1.502549,0.534507,-5.190000,62,61,64
1.502549,0.564202,-5.190000,59,56,57
1.496759,0.591608,-5.170000,55,55,55
1.496759,0.621188,-5.170000,52,49,50
1.467808,0.638181,-5.070000,46,43,46
1.273838,0.579021,-4.400000,41,38,42
1.256467,0.595956,-4.340000,38,33,39
1.241992,0.613636,-4.290000,13,17,34
1.241992,0.638181,-4.290000,9,15,31
1.241992,0.662727,-4.290000,5,8,27
1.233306,0.682466,-4.260000,3,6,30
1.221726,0.700203,-4.220000,1,6,29
1.215936,0.720915,-4.200000,5,11,34
1.210146,0.741398,-4.180000,7,17,36
1.207251,0.763483,-4.170000,14,21,46
1.201461,0.783566,-4.150000,15,25,49
1.192775,0.801474,-4.120000,13,22,48
1.189880,0.823045,-4.110000,11,23,46
1.184090,0.842441,-4.090000,14,23,47
1.175405,0.859491,-4.060000,15,25,47
1.172510,0.880546,-4.050000,9,24,46
1.172510,0.903718,-4.050000,6,18,42
1.172510,0.926891,-4.050000,7,16,43
1.169615,0.947717,-4.040000,7,19,45
1.169615,0.970832,-4.040000,5,17,43
1.166720,0.991487,-4.030000,7,20,43
1.160929,1.009510,-4.010000,2,14,37
1.158034,1.029878,-4.000000,0,12,38
1.158034,1.052765,-4.000000,0,8,34
1.155139,1.072962,-3.990000,1,10,37
1.155139,1.095791,-3.990000,0,8,36
1.155139,1.118620,-3.990000,0,4,36
1.155139,1.141449,-3.990000,0,5,34
1.155139,1.164278,-3.990000,0,4,32
1.155139,1.187107,-3.990000,0,4,34
1.152244,1.206903,-3.980000,1,10,37
1.152244,1.229675,-3.980000,0,8,29
1.152244,1.252447,-3.980000,0,9,32
1.152244,1.275218,-3.980000,2,10,33
1.149349,1.294729,-3.970000,0,11,35
1.149349,1.317443,-3.970000,0,13,32
1.149349,1.340158,-3.970000,0,13,36
1.544412,-1.316642,-5.230000,112,116,117
1.544412,-1.286719,-5.230000,114,116,117
1.544412,-1.256795,-5.230000,114,116,115
1.544412,-1.226871,-5.230000,113,118,116
1.544412,-1.196948,-5.230000,112,117,115
1.544412,-1.167024,-5.230000,115,117,116
1.544412,-1.137100,-5.230000,113,118,116
1.544412,-1.107177,-5.230000,116,118,118
1.544412,-1.077253,-5.230000,116,118,118
1.544412,-1.047329,-5.230000,116,119,116
1.544412,-1.017405,-5.230000,117,120,117
1.538506,-0.983706,-5.210000,116,118,118
1.538506,-0.953896,-5.210000,117,120,119
1.538506,-0.924087,-5.210000,118,121,118
1.538506,-0.894278,-5.210000,118,121,120
1.538506,-0.864469,-5.210000,118,121,120
1.538506,-0.834659,-5.210000,120,120,118
1.538506,-0.804850,-5.210000,118,121,120
1.538506,-0.775041,-5.210000,118,121,120
1.538506,-0.745231,-5.210000,118,121,120
1.538506,-0.715422,-5.210000,118,121,120
1.538506,-0.685613,-5.210000,120,120,118
1.538506,-0.655804,-5.210000,120,120,120
1.532600,-0.623591,-5.190000,118,121,120
1.532600,-0.593897,-5.190000,117,120,119
1.532600,-0.564202,-5.190000,120,120,120
1.532600,-0.534507,-5.190000,121,121,121
1.532600,-0.504812,-5.190000,120,120,120
1.532600,-0.475117,-5.190000,129,130,127
1.532600,-0.445422,-5.190000,0,0,3
1.532600,-0.415728,-5.190000,3,0,20
1.532600,-0.386033,-5.190000,71,70,64
1.532600,-0.356338,-5.190000,34,37,36
1.532600,-0.326643,-5.190000,14,20,23
1.538506,-0.298093,-5.210000,121,121,121
1.538506,-0.268283,-5.210000,121,121,121
1.532600,-0.237559,-5.190000,121,121,121
1.532600,-0.207864,-5.190000,121,121,121
1.532600,-0.178169,-5.190000,121,121,121
1.532600,-0.148474,-5.190000,120,120,120
1.532600,-0.118779,-5.190000,120,120,120
1.532600,-0.089084,-5.190000,121,121,119
1.532600,-0.059390,-5.190000,122,122,122
1.532600,-0.029695,-5.190000,122,122,122
1.532600,0.000000,-5.190000,122,122,122
1.526694,0.029580,-5.170000,121,121,121
1.526694,0.059161,-5.170000,121,121,121
1.526694,0.088741,-5.170000,122,122,122
1.526694,0.118322,-5.170000,121,121,121
1.526694,0.147902,-5.170000,121,121,121
1.526694,0.177482,-5.170000,121,121,121
1.526694,0.207063,-5.170000,121,121,121
1.526694,0.236643,-5.170000,118,121,120
1.526694,0.266224,-5.170000,118,118,118
1.526694,0.295804,-5.170000,112,112,112
1.526694,0.325384,-5.170000,105,104,107
1.526694,0.354965,-5.170000,97,96,99
1.526694,0.384545,-5.170000,87,88,85
1.532600,0.415728,-5.190000,85,85,83
1.532600,0.445422,-5.190000,77,77,77
1.532600,0.475117,-5.190000,73,73,73
1.532600,0.504812,-5.190000,69,69,69
1.532600,0.534507,-5.190000,63,62,65
1.532600,0.564202,-5.190000,60,57,58
1.532600,0.593897,-5.190000,55,55,55
1.526694,0.621188,-5.170000,52,50,48
1.308173,0.557622,-4.430000,46,43,46
1.299314,0.579021,-4.400000,40,37,40
