-1.624749,1.408116,-6.270000,105,103,104
-1.616975,1.437311,-6.240000,104,102,102
-1.616975,1.473244,-6.240000,102,99,100
-1.616975,1.509177,-6.240000,101,98,99
-1.616975,1.545110,-6.240000,101,99,97
-1.616975,1.581042,-6.240000,101,99,97
-1.609201,1.609201,-6.210000,101,99,97
-1.609201,1.644961,-6.210000,99,97,96
-1.609201,1.680721,-6.210000,98,96,95
-1.609201,1.716481,-6.210000,99,97,96
-1.609201,1.752241,-6.210000,98,97,93
-1.609201,1.788001,-6.210000,97,95,93
-1.609201,1.823762,-6.210000,94,95,92
-1.609201,1.859522,-6.210000,93,94,91
-1.609201,1.895282,-6.210000,93,94,91
-1.609201,1.931042,-6.210000,91,91,89
-1.604019,1.960467,-6.190000,90,90,88
-1.626649,-1.774527,-6.420000,110,113,110
-1.619048,-1.729438,-6.390000,109,112,109
-1.619048,-1.692641,-6.390000,109,111,111
-1.619048,-1.655845,-6.390000,110,113,110
-1.619048,-1.619048,-6.390000,109,109,109
-1.619048,-1.582252,-6.390000,109,109,109
-1.619048,-1.545455,-6.390000,108,108,108
-1.619048,-1.508659,-6.390000,106,106,106
-1.619048,-1.471862,-6.390000,106,106,104
-1.619048,-1.435066,-6.390000,105,105,103
-1.619048,-1.398269,-6.390000,106,106,104
-1.619048,-1.361472,-6.390000,105,105,103
-1.619048,-1.324676,-6.390000,104,104,102
-1.611447,-1.281833,-6.360000,104,104,100
-1.611447,-1.245209,-6.360000,106,106,104
-1.611447,-1.208585,-6.360000,104,104,102
-1.603846,-1.166433,-6.330000,101,102,99
-1.603846,-1.129982,-6.330000,102,103,100
-1.603846,-1.093531,-6.330000,101,98,99
-1.596245,-1.052070,-6.300000,102,100,98
-1.596245,-1.015792,-6.300000,98,99,94
-1.596245,-0.979514,-6.300000,97,97,93
-1.596245,-0.943236,-6.300000,98,97,93
-1.596245,-0.906957,-6.300000,96,94,90
-1.596245,-0.870679,-6.300000,95,93,89
-1.596245,-0.834401,-6.300000,94,92,86
-1.596245,-0.798122,-6.300000,91,90,84
-1.603846,-0.765472,-6.330000,91,87,81
-1.603846,-0.729021,-6.330000,89,86,80
-1.603846,-0.692570,-6.330000,88,84,81
-1.603846,-0.656119,-6.330000,86,81,81
-1.603846,-0.619668,-6.330000,84,80,74
-1.603846,-0.583217,-6.330000,83,76,74
-1.603846,-0.546766,-6.330000,83,77,72
-1.603846,-0.510315,-6.330000,82,76,69
-1.596245,-0.471618,-6.300000,80,75,68
-1.596245,-0.435339,-6.300000,79,75,70
-1.545570,-0.386393,-6.100000,78,74,68
-1.309934,-0.297712,-5.170000,77,73,67
-1.309934,-0.267941,-5.170000,74,70,69
-1.309934,-0.238170,-5.170000,10,16,34
-1.304867,-0.207592,-5.150000,13,16,36
-1.304867,-0.177936,-5.150000,13,17,32
-1.304867,-0.148280,-5.150000,8,12,29
-1.304867,-0.118624,-5.150000,10,11,29
-1.299799,-0.088623,-5.130000,7,8,31
-1.299799,-0.059082,-5.130000,7,9,27
-1.299799,-0.029541,-5.130000,8,10,28
-0.000000,0.000000,-0.000000,9,9,25
-0.000000,0.000000,-0.000000,7,9,25
-0.000000,0.000000,-0.000000,2,2,16
-0.000000,0.000000,-0.000000,54,51,54
-0.000000,0.000000,-0.000000,74,71,63
-0.000000,0.000000,-0.000000,77,71,64
-0.000000,0.000000,-0.000000,78,72,67
-0.000000,0.000000,-0.000000,82,72,68
-0.000000,0.000000,-0.000000,51,28,29
-1.013489,0.207305,-4.000000,49,18,24
-1.013489,0.230338,-4.000000,46,13,19
-1.013489,0.253372,-4.000000,44,2,7
-1.013489,0.276406,-4.000000,46,0,4
-1.003354,0.296445,-3.960000,44,0,2
-0.993219,0.316024,-3.920000,49,0,2
-0.985618,0.336006,-3.890000,43,0,0
-0.980550,0.356564,-3.870000,123,115,108
-0.980550,0.378849,-3.870000,116,107,103
-0.975483,0.399061,-3.850000,119,111,107
-0.975483,0.421231,-3.850000,131,116,121
-0.972949,0.442250,-3.840000,70,15,13
-0.970415,0.463153,-3.830000,63,6,7
-0.970415,0.485208,-3.830000,69,12,13
-0.967882,0.505938,-3.820000,76,12,13
-0.965348,0.526553,-3.810000,77,16,12
-0.965348,0.548493,-3.810000,76,13,18
-0.965348,0.570433,-3.810000,75,13,11
-0.965348,0.592373,-3.810000,78,15,14
-0.967882,0.615925,-3.820000,78,11,17
-0.967882,0.637922,-3.820000,74,10,11
-0.967882,0.659919,-3.820000,71,9,14
-0.970415,0.683702,-3.830000,69,6,12
-0.970415,0.705757,-3.830000,66,6,10
-0.970415,0.727812,-3.830000,62,1,13
-0.972949,0.751824,-3.840000,59,6,10
-0.975483,0.775952,-3.850000,56,6,18
-0.978017,0.800195,-3.860000,61,21,28
-1.568374,1.318860,-6.190000,105,103,104
-1.581042,1.365446,-6.240000,104,100,101
-1.581042,1.401379,-6.240000,105,103,104
-1.581042,1.437311,-6.240000,102,99,100
-1.581042,1.473244,-6.240000,102,99,100
-1.581042,1.509177,-6.240000,102,99,100
-1.581042,1.545110,-6.240000,102,100,98
-1.581042,1.581042,-6.240000,101,99,97
-1.573441,1.609201,-6.210000,99,97,96
-1.573441,1.644961,-6.210000,101,99,95
-1.573441,1.680721,-6.210000,98,97,93
-1.581042,1.724774,-6.240000,99,98,94
-1.581042,1.760706,-6.240000,97,95,93
-1.581042,1.796639,-6.240000,95,92,93
-1.581042,1.832572,-6.240000,93,94,91
-1.581042,1.868505,-6.240000,95,93,91
-1.573441,1.895282,-6.210000,91,91,89
-1.573441,1.931042,-6.210000,92,93,88
-1.573441,1.966802,-6.210000,91,91,89
-1.589680,-1.774527,-6.420000,109,112,109
-1.589680,-1.737557,-6.420000,110,113,110
-1.582252,-1.692641,-6.390000,111,111,109
-1.582252,-1.655845,-6.390000,111,111,111
-1.582252,-1.619048,-6.390000,109,109,109
-1.582252,-1.582252,-6.390000,108,108,108
-1.582252,-1.545455,-6.390000,106,106,104
-1.582252,-1.508659,-6.390000,105,105,105
-1.582252,-1.471862,-6.390000,105,105,103
-1.582252,-1.435066,-6.390000,104,104,102
-1.582252,-1.398269,-6.390000,105,106,101
-1.582252,-1.361472,-6.390000,104,104,102
-1.582252,-1.324676,-6.390000,104,104,100
-1.574823,-1.281833,-6.360000,102,103,98
-1.574823,-1.245209,-6.360000,102,103,100
-1.574823,-1.208585,-6.360000,100,101,98
-1.567395,-1.166433,-6.330000,102,103,100
-1.567395,-1.129982,-6.330000,101,102,99
-1.567395,-1.093531,-6.330000,101,99,97
-1.559967,-1.052070,-6.300000,99,97,96
-1.559967,-1.015792,-6.300000,99,98,94
-1.559967,-0.979514,-6.300000,98,97,93
-1.559967,-0.943236,-6.300000,97,95,91
-1.559967,-0.906957,-6.300000,96,94,90
-1.559967,-0.870679,-6.300000,94,92,88
-1.559967,-0.834401,-6.300000,91,90,86
-1.567395,-0.801923,-6.330000,90,89,82
-1.567395,-0.765472,-6.330000,88,85,79
-1.567395,-0.729021,-6.330000,88,85,79
-1.567395,-0.692570,-6.330000,87,83,82
-1.567395,-0.656119,-6.330000,87,83,82
-1.567395,-0.619668,-6.330000,82,79,71
-1.567395,-0.583217,-6.330000,83,77,72
-1.567395,-0.546766,-6.330000,82,76,71
-1.567395,-0.510315,-6.330000,79,73,68
-1.559967,-0.471618,-6.300000,78,72,65
-1.559967,-0.435339,-6.300000,77,71,64
-1.280163,-0.327484,-5.170000,76,70,65
-1.280163,-0.297712,-5.170000,75,69,64
-1.280163,-0.267941,-5.170000,72,67,67
-1.280163,-0.238170,-5.170000,8,13,34
-1.280163,-0.208399,-5.170000,10,14,33
-1.275211,-0.177936,-5.150000,12,16,32
-1.275211,-0.148280,-5.150000,9,13,30
-1.275211,-0.118624,-5.150000,8,10,28
-1.275211,-0.088968,-5.150000,7,9,29
-1.270258,-0.059082,-5.130000,11,13,28
-1.000359,-0.023264,-4.040000,10,11,29
-0.000000,0.000000,-0.000000,7,9,25
-0.000000,0.000000,-0.000000,10,10,26
-0.000000,0.000000,-0.000000,8,7,23
-0.000000,0.000000,-0.000000,8,8,21
-0.000000,0.000000,-0.000000,5,8,18
-0.000000,0.000000,-0.000000,4,4,18
-0.000000,0.000000,-0.000000,10,0,2
-0.000000,0.000000,-0.000000,76,64,63
-0.992931,0.184731,-4.010000,44,19,21
-0.992931,0.207823,-4.010000,46,16,22
-0.990455,0.230338,-4.000000,44,8,16
-0.990455,0.253372,-4.000000,44,2,7
-0.990455,0.276406,-4.000000,44,0,0
-0.980550,0.296445,-3.960000,44,0,2
-0.973122,0.316830,-3.930000,41,0,0
-0.968170,0.337734,-3.910000,116,106,100
-0.960741,0.357485,-3.880000,110,102,96
-0.958265,0.378849,-3.870000,113,105,101
-0.953313,0.399061,-3.850000,120,112,106
-0.953313,0.421231,-3.850000,125,116,115
-0.950837,0.442250,-3.840000,128,116,118
-0.948361,0.463153,-3.830000,133,127,122
-0.948361,0.485208,-3.830000,67,13,13
-0.945884,0.505938,-3.820000,73,16,14
-0.945884,0.527936,-3.820000,79,18,14
-0.943408,0.548493,-3.810000,80,15,19
-0.943408,0.570433,-3.810000,80,19,17
-0.943408,0.592373,-3.810000,84,18,15
-0.945884,0.615925,-3.820000,82,18,19
-0.945884,0.637922,-3.820000,78,15,16
-0.945884,0.659919,-3.820000,75,11,12
-0.948361,0.683702,-3.830000,74,9,13
-0.948361,0.705757,-3.830000,71,9,12
-0.950837,0.729712,-3.840000,68,4,14
-0.950837,0.751824,-3.840000,62,4,12
-0.953313,0.775952,-3.850000,59,5,16
-0.955789,0.800195,-3.860000,56,11,20
-0.955789,0.822423,-3.860000,50,32,33
-1.537681,1.358881,-6.210000,103,98,102
-1.545110,1.401379,-6.240000,103,100,101
-1.545110,1.437311,-6.240000,102,99,100
-1.545110,1.473244,-6.240000,102,99,100
-1.545110,1.509177,-6.240000,101,98,99
-1.545110,1.545110,-6.240000,101,98,99
-1.545110,1.581042,-6.240000,101,99,97
-1.545110,1.616975,-6.240000,98,96,97
-1.545110,1.652908,-6.240000,98,97,93
-1.545110,1.688841,-6.240000,97,95,91
-1.545110,1.724774,-6.240000,98,97,93
-1.545110,1.760706,-6.240000,97,95,93
-1.545110,1.796639,-6.240000,96,93,94
-1.545110,1.832572,-6.240000,95,93,91
-1.545110,1.868505,-6.240000,95,93,91
-1.545110,1.904438,-6.240000,94,92,90
-1.545110,1.940370,-6.240000,91,92,87
-1.537681,1.966802,-6.210000,91,92,87
-1.552711,-1.774527,-6.420000,109,111,111
-1.552711,-1.737557,-6.420000,110,113,110
-1.545455,-1.692641,-6.390000,109,110,107
-1.545455,-1.655845,-6.390000,109,109,109
-1.545455,-1.619048,-6.390000,109,109,109
-1.545455,-1.582252,-6.390000,108,108,108
-1.545455,-1.545455,-6.390000,106,107,102
-1.545455,-1.508659,-6.390000,106,106,104
-1.545455,-1.471862,-6.390000,104,104,102
-1.545455,-1.435066,-6.390000,102,103,100
-1.545455,-1.398269,-6.390000,104,104,100
-1.545455,-1.361472,-6.390000,101,102,99
-1.545455,-1.324676,-6.390000,101,102,97
-1.538200,-1.281833,-6.360000,103,101,97
-1.538200,-1.245209,-6.360000,101,102,99
-1.538200,-1.208585,-6.360000,101,102,99
-1.538200,-1.171962,-6.360000,101,102,97
-1.530944,-1.129982,-6.330000,102,100,98
-1.530944,-1.093531,-6.330000,101,99,97
-1.523688,-1.052070,-6.300000,101,99,95
-1.523688,-1.015792,-6.300000,98,97,93
-1.523688,-0.979514,-6.300000,96,94,92
-1.523688,-0.943236,-6.300000,95,93,89
-1.523688,-0.906957,-6.300000,92,91,87
-1.523688,-0.870679,-6.300000,90,88,84
-1.523688,-0.834401,-6.300000,91,86,83
-1.530944,-0.801923,-6.330000,87,85,81
-1.530944,-0.765472,-6.330000,88,85,79
-1.530944,-0.729021,-6.330000,86,82,79
-1.530944,-0.692570,-6.330000,85,80,79
-1.530944,-0.656119,-6.330000,84,79,78
-1.530944,-0.619668,-6.330000,82,79,71
-1.530944,-0.583217,-6.330000,81,78,72
-1.530944,-0.546766,-6.330000,80,75,68
-1.530944,-0.510315,-6.330000,80,75,68
-1.523688,-0.471618,-6.300000,77,71,66
-1.516433,-0.433266,-6.270000,77,71,66
-1.250392,-0.327484,-5.170000,77,71,66
-1.250392,-0.297712,-5.170000,78,72,67
-1.250392,-0.267941,-5.170000,71,66,66
-1.250392,-0.238170,-5.170000,8,13,34
-1.250392,-0.208399,-5.170000,10,14,33
-1.250392,-0.178627,-5.170000,10,14,33
-1.245555,-0.148280,-5.150000,9,14,26
-1.245555,-0.118624,-5.150000,8,13,27
-1.245555,-0.088968,-5.150000,7,9,29
-1.240718,-0.059082,-5.130000,10,12,27
-0.974677,-0.023207,-4.030000,8,11,24
-0.000000,0.000000,-0.000000,10,10,26
-0.000000,0.000000,-0.000000,9,7,23
-0.000000,0.000000,-0.000000,5,5,23
-0.000000,0.000000,-0.000000,5,6,17
-0.000000,0.000000,-0.000000,5,8,18
-0.000000,0.000000,-0.000000,42,17,26
-0.965003,0.137858,-3.990000,69,48,51
-0.969840,0.161640,-4.010000,59,38,38
-0.974677,0.185653,-4.030000,41,9,11
-0.974677,0.208859,-4.030000,40,1,5
-0.969840,0.230914,-4.010000,41,1,10
-0.967421,0.253372,-4.000000,45,0,5
-0.965003,0.275715,-3.990000,48,0,7
-0.957747,0.296445,-3.960000,46,0,7
-0.955328,0.318443,-3.950000,107,92,83
-0.945654,0.337734,-3.910000,108,98,92
-0.940817,0.358406,-3.890000,113,102,97
-0.938398,0.379828,-3.880000,122,111,108
-0.933561,0.400098,-3.860000,57,10,3
-0.931143,0.421231,-3.850000,71,3,3
-0.928724,0.442250,-3.840000,126,117,118
-0.926306,0.463153,-3.830000,127,121,118
-0.926306,0.485208,-3.830000,133,127,122
-0.923887,0.505938,-3.820000,66,12,10
-0.923887,0.527936,-3.820000,78,17,13
-0.921469,0.548493,-3.810000,82,20,22
-0.921469,0.570433,-3.810000,83,22,17
-0.921469,0.592373,-3.810000,84,18,17
-0.923887,0.615925,-3.820000,83,21,21
-0.923887,0.637922,-3.820000,83,20,18
-0.923887,0.659919,-3.820000,79,13,14
-0.926306,0.683702,-3.830000,75,9,13
-0.926306,0.705757,-3.830000,73,8,12
-0.928724,0.729712,-3.840000,68,3,11
-0.928724,0.751824,-3.840000,65,3,10
-0.931143,0.775952,-3.850000,64,6,12
-0.933561,0.800195,-3.860000,60,8,18
-0.933561,0.822423,-3.860000,58,15,25
-0.945654,0.855592,-3.910000,85,65,65
-1.509177,1.401379,-6.240000,102,100,98
-1.509177,1.437311,-6.240000,102,100,98
-1.509177,1.473244,-6.240000,101,98,99
-1.509177,1.509177,-6.240000,101,98,101
-1.509177,1.545110,-6.240000,101,98,99
-1.509177,1.581042,-6.240000,99,97,98
-1.509177,1.616975,-6.240000,99,97,98
-1.509177,1.652908,-6.240000,99,98,94
-1.509177,1.688841,-6.240000,98,97,93
-1.509177,1.724774,-6.240000,98,96,95
-1.509177,1.760706,-6.240000,97,95,93
-1.509177,1.796639,-6.240000,98,96,97
-1.509177,1.832572,-6.240000,97,95,93
-1.509177,1.868505,-6.240000,95,93,91
-1.509177,1.904438,-6.240000,95,93,89
-1.509177,1.940370,-6.240000,92,92,90
-1.509177,1.976303,-6.240000,92,90,89
-1.515742,-1.774527,-6.420000,109,111,111
-1.515742,-1.737557,-6.420000,109,112,109
-1.508659,-1.692641,-6.390000,112,113,108
-1.508659,-1.655845,-6.390000,112,112,110
-1.508659,-1.619048,-6.390000,109,109,109
-1.508659,-1.582252,-6.390000,108,109,106
-1.508659,-1.545455,-6.390000,107,108,103
-1.508659,-1.508659,-6.390000,106,106,104
-1.508659,-1.471862,-6.390000,104,104,102
-1.508659,-1.435066,-6.390000,102,103,100
-1.508659,-1.398269,-6.390000,101,102,97
-1.508659,-1.361472,-6.390000,100,101,98
-1.508659,-1.324676,-6.390000,100,101,96
-1.501576,-1.281833,-6.360000,102,100,96
-1.501576,-1.245209,-6.360000,100,101,98
-1.501576,-1.208585,-6.360000,99,99,97
-1.501576,-1.171962,-6.360000,99,98,94
-1.494493,-1.129982,-6.330000,101,99,95
-1.494493,-1.093531,-6.330000,98,97,93
-1.494493,-1.057080,-6.330000,97,96,89
-1.487410,-1.015792,-6.300000,96,94,90
-1.487410,-0.979514,-6.300000,95,93,91
-1.487410,-0.943236,-6.300000,92,91,87
-1.487410,-0.906957,-6.300000,91,90,86
-1.487410,-0.870679,-6.300000,89,87,83
-1.487410,-0.834401,-6.300000,88,84,81
-1.494493,-0.801923,-6.330000,88,84,81
-1.494493,-0.765472,-6.330000,87,81,77
-1.494493,-0.729021,-6.330000,85,81,77
-1.494493,-0.692570,-6.330000,84,79,76
-1.494493,-0.656119,-6.330000,82,78,75
-1.494493,-0.619668,-6.330000,82,79,71
-1.494493,-0.583217,-6.330000,79,75,70
-1.494493,-0.546766,-6.330000,82,76,69
-1.494493,-0.510315,-6.330000,79,74,66
-1.487410,-0.471618,-6.300000,78,72,67
-1.447273,-0.423592,-6.130000,76,70,65
-1.225342,-0.328750,-5.190000,76,70,65
-1.220621,-0.297712,-5.170000,76,70,65
-1.220621,-0.267941,-5.170000,4,10,29
-1.220621,-0.238170,-5.170000,12,15,36
-1.220621,-0.208399,-5.170000,10,14,33
-1.220621,-0.178627,-5.170000,10,14,31
-1.220621,-0.148856,-5.170000,10,16,25
-1.215899,-0.118624,-5.150000,9,13,30
-1.215899,-0.088968,-5.150000,7,9,27
-1.211177,-0.059082,-5.130000,6,8,23
-0.951470,-0.023207,-4.030000,8,11,26
-0.000000,0.000000,-0.000000,8,8,21
-0.000000,0.000000,-0.000000,8,5,22
-0.000000,0.000000,-0.000000,2,1,20
-0.000000,0.000000,-0.000000,68,42,44
-0.000000,0.000000,-0.000000,57,27,30
-0.946748,0.115457,-4.010000,56,31,32
-0.944387,0.138203,-4.000000,55,29,31
-0.946748,0.161640,-4.010000,49,22,24
-0.951470,0.185653,-4.030000,47,10,9
-0.946748,0.207823,-4.010000,39,0,2
-0.944387,0.230338,-4.000000,39,0,1
-0.942026,0.252739,-3.990000,39,0,0
-0.939665,0.275024,-3.980000,46,0,4
-0.934943,0.296445,-3.960000,44,0,4
-0.934943,0.319249,-3.960000,108,92,89
-0.923139,0.337734,-3.910000,119,108,101
-0.920778,0.359328,-3.900000,56,0,0
-0.916056,0.379828,-3.880000,65,0,0
-0.913695,0.401134,-3.870000,67,1,1
-0.908973,0.421231,-3.850000,70,1,4
-0.906612,0.442250,-3.840000,127,119,115
-0.904251,0.463153,-3.830000,127,121,116
-0.904251,0.485208,-3.830000,131,124,120
-0.901890,0.505938,-3.820000,146,138,132
-0.901890,0.527936,-3.820000,74,15,12
-0.901890,0.549933,-3.820000,80,19,19
-0.899529,0.570433,-3.810000,84,23,19
-0.899529,0.592373,-3.810000,84,20,23
-0.901890,0.615925,-3.820000,86,26,28
-0.901890,0.637922,-3.820000,84,23,21
-0.901890,0.659919,-3.820000,82,16,16
-0.904251,0.683702,-3.830000,78,11,13
-0.906612,0.707599,-3.840000,74,7,14
-0.906612,0.729712,-3.840000,73,6,13
-0.908973,0.753782,-3.850000,72,7,13
-0.911334,0.777968,-3.860000,65,5,11
-0.911334,0.800195,-3.860000,59,3,13
-0.911334,0.822423,-3.860000,58,9,18
-0.920778,0.853404,-3.900000,62,16,18
-1.461439,1.390150,-6.190000,108,106,104
-1.473244,1.437311,-6.240000,102,100,98
-1.473244,1.473244,-6.240000,102,99,100
-1.473244,1.509177,-6.240000,103,100,101
-1.473244,1.545110,-6.240000,99,97,98
-1.473244,1.581042,-6.240000,101,98,99
-1.473244,1.616975,-6.240000,99,97,96
-1.473244,1.652908,-6.240000,99,97,96
-1.473244,1.688841,-6.240000,99,98,94
-1.473244,1.724774,-6.240000,98,96,95
-1.473244,1.760706,-6.240000,96,94,92
-1.473244,1.796639,-6.240000,97,95,95
-1.473244,1.832572,-6.240000,95,93,91
-1.473244,1.868505,-6.240000,96,94,92
-1.473244,1.904438,-6.240000,92,90,89
-1.473244,1.940370,-6.240000,91,89,88
-1.473244,1.976303,-6.240000,90,88,86
-1.478772,-1.774527,-6.420000,111,114,113
-1.478772,-1.737557,-6.420000,111,114,111
-1.478772,-1.700588,-6.420000,110,113,108
-1.471862,-1.655845,-6.390000,112,112,110
-1.471862,-1.619048,-6.390000,108,109,106
-1.471862,-1.582252,-6.390000,107,107,105
-1.471862,-1.545455,-6.390000,106,106,104
-1.471862,-1.508659,-6.390000,102,103,98
-1.471862,-1.471862,-6.390000,104,104,102
-1.471862,-1.435066,-6.390000,99,100,95
-1.471862,-1.398269,-6.390000,99,100,95
-1.471862,-1.361472,-6.390000,98,98,96
-1.471862,-1.324676,-6.390000,98,98,96
-1.464952,-1.281833,-6.360000,97,95,93
-1.464952,-1.245209,-6.360000,99,97,96
-1.464952,-1.208585,-6.360000,97,97,93
-1.464952,-1.171962,-6.360000,98,97,93
-1.458042,-1.129982,-6.330000,96,94,90
-1.458042,-1.093531,-6.330000,98,97,93
-1.458042,-1.057080,-6.330000,97,96,89
-1.451132,-1.015792,-6.300000,95,93,89
-1.451132,-0.979514,-6.300000,94,92,90
-1.451132,-0.943236,-6.300000,92,88,84
-1.451132,-0.906957,-6.300000,90,88,86
-1.451132,-0.870679,-6.300000,89,85,82
-1.451132,-0.834401,-6.300000,88,84,81
-1.458042,-0.801923,-6.330000,87,83,80
-1.458042,-0.765472,-6.330000,85,79,74
-1.458042,-0.729021,-6.330000,86,80,75
-1.458042,-0.692570,-6.330000,84,80,74
-1.458042,-0.656119,-6.330000,84,80,74
-1.458042,-0.619668,-6.330000,81,78,72
-1.458042,-0.583217,-6.330000,79,73,68
-1.458042,-0.546766,-6.330000,78,72,65
-1.451132,-0.507896,-6.300000,77,71,64
-1.451132,-0.471618,-6.300000,77,71,64
-1.195456,-0.358637,-5.190000,77,71,66
-1.195456,-0.328750,-5.190000,72,67,59
-1.190849,-0.297712,-5.170000,72,66,61
-1.190849,-0.267941,-5.170000,8,14,32
-1.190849,-0.238170,-5.170000,10,11,31
-1.190849,-0.208399,-5.170000,7,10,32
-1.190849,-0.178627,-5.170000,8,12,29
-1.190849,-0.148856,-5.170000,9,14,24
-1.190849,-0.119085,-5.170000,7,9,27
-1.186243,-0.088968,-5.150000,8,11,24
-1.186243,-0.059312,-5.150000,8,7,23
-0.928264,-0.023207,-4.030000,8,7,23
-0.000000,0.000000,-0.000000,10,9,21
-0.000000,0.000000,-0.000000,2,0,16
-0.000000,0.000000,-0.000000,59,29,30
-0.909837,0.068238,-3.950000,55,16,18
-0.919050,0.091905,-3.990000,52,15,21
-0.923657,0.115457,-4.010000,51,9,12
-0.921353,0.138203,-4.000000,50,8,11
-0.921353,0.161237,-4.000000,49,5,11
-0.923657,0.184731,-4.010000,48,5,1
-0.921353,0.207305,-4.000000,46,0,2
-0.919050,0.229763,-3.990000,45,0,2
-0.916747,0.252105,-3.980000,43,0,0
-0.914443,0.274333,-3.970000,46,0,3
-0.914443,0.297194,-3.970000,46,0,9
-0.909837,0.318443,-3.950000,90,65,62
-0.905230,0.339461,-3.930000,63,0,0
-0.900623,0.360249,-3.910000,66,0,8
-0.898320,0.381786,-3.900000,57,0,0
-0.893713,0.402171,-3.880000,136,122,125
-0.886803,0.421231,-3.850000,70,1,4
-0.884499,0.442250,-3.840000,140,127,120
-0.882196,0.463153,-3.830000,128,123,115
-0.882196,0.485208,-3.830000,133,127,120
-0.879893,0.505938,-3.820000,134,126,120
-0.879893,0.527936,-3.820000,81,24,23
-0.879893,0.549933,-3.820000,80,19,19
-0.879893,0.571930,-3.820000,86,28,20
-0.879893,0.593927,-3.820000,87,25,30
-0.879893,0.615925,-3.820000,87,29,32
-0.879893,0.637922,-3.820000,87,28,27
-0.879893,0.659919,-3.820000,82,20,18
-0.882196,0.683702,-3.830000,82,16,18
-0.884499,0.707599,-3.840000,76,11,17
-0.886803,0.731612,-3.850000,76,7,12
-0.886803,0.753782,-3.850000,75,9,13
-0.889106,0.777968,-3.860000,68,5,12
-0.889106,0.800195,-3.860000,66,7,16
-0.889106,0.822423,-3.860000,62,6,13
-0.896016,0.851215,-3.890000,60,9,14
-0.902926,0.880353,-3.920000,55,22,29
-1.430401,1.430401,-6.210000,101,99,97
-1.437311,1.473244,-6.240000,101,98,99
-1.437311,1.509177,-6.240000,101,98,99
-1.437311,1.545110,-6.240000,101,98,99
-1.437311,1.581042,-6.240000,101,98,99
-1.437311,1.616975,-6.240000,101,99,95
-1.437311,1.652908,-6.240000,98,96,95
-1.437311,1.688841,-6.240000,97,95,91
-1.437311,1.724774,-6.240000,98,96,97
-1.437311,1.760706,-6.240000,97,95,93
-1.437311,1.796639,-6.240000,96,94,92
-1.437311,1.832572,-6.240000,96,94,92
-1.437311,1.868505,-6.240000,92,90,89
-1.437311,1.904438,-6.240000,94,91,92
-1.437311,1.940370,-6.240000,92,91,87
-1.437311,1.976303,-6.240000,94,92,90
-1.441803,-1.774527,-6.420000,111,114,113
-1.441803,-1.737557,-6.420000,109,111,111
-1.441803,-1.700588,-6.420000,110,113,110
-1.441803,-1.663619,-6.420000,111,111,109
-1.435066,-1.619048,-6.390000,108,109,106
-1.435066,-1.582252,-6.390000,107,107,105
-1.435066,-1.545455,-6.390000,105,105,103
-1.441803,-1.515742,-6.420000,102,103,98
-1.435066,-1.471862,-6.390000,99,99,97
-1.435066,-1.435066,-6.390000,99,100,95
-1.435066,-1.398269,-6.390000,98,99,94
-1.435066,-1.361472,-6.390000,97,97,93
-1.435066,-1.324676,-6.390000,97,97,95
-1.428328,-1.281833,-6.360000,96,94,90
-1.428328,-1.245209,-6.360000,97,95,93
-1.428328,-1.208585,-6.360000,96,94,90
-1.428328,-1.171962,-6.360000,96,94,90
-1.421591,-1.129982,-6.330000,95,93,89
-1.421591,-1.093531,-6.330000,96,95,88
-1.414853,-1.052070,-6.300000,94,92,88
-1.414853,-1.015792,-6.300000,94,92,88
-1.421591,-0.984178,-6.330000,92,90,89
-1.421591,-0.947727,-6.330000,92,88,84
-1.421591,-0.911276,-6.330000,89,85,82
-1.421591,-0.874825,-6.330000,89,85,82
-1.414853,-0.834401,-6.300000,87,83,80
-1.414853,-0.798122,-6.300000,87,81,79
-1.421591,-0.765472,-6.330000,86,80,75
-1.421591,-0.729021,-6.330000,85,79,74
-1.421591,-0.692570,-6.330000,81,78,70
-1.421591,-0.656119,-6.330000,80,76,71
-1.421591,-0.619668,-6.330000,80,74,70
-1.421591,-0.583217,-6.330000,77,71,66
-1.421591,-0.546766,-6.330000,77,71,64
-1.414853,-0.507896,-6.300000,76,70,65
-1.376675,-0.458892,-6.130000,75,69,64
-1.165570,-0.358637,-5.190000,77,69,63
-1.165570,-0.328750,-5.190000,73,68,61
-1.161078,-0.297712,-5.170000,70,66,62
-1.161078,-0.267941,-5.170000,8,14,32
-1.161078,-0.238170,-5.170000,11,12,34
-1.161078,-0.208399,-5.170000,8,12,31
-1.161078,-0.178627,-5.170000,7,9,27
-1.161078,-0.148856,-5.170000,45,51,60
-1.161078,-0.119085,-5.170000,62,59,67
-1.156586,-0.088968,-5.150000,0,3,16
-1.156586,-0.059312,-5.150000,9,7,23
-0.000000,-0.000000,-0.000000,7,6,24
-0.000000,0.000000,-0.000000,10,9,19
-0.000000,0.000000,-0.000000,47,21,25
-0.000000,0.000000,-0.000000,50,5,16
-0.887091,0.068238,-3.950000,52,11,13
-0.896074,0.091905,-3.990000,49,7,10
-0.900565,0.115457,-4.010000,49,5,9
-0.898320,0.138203,-4.000000,51,4,9
-0.896074,0.160834,-3.990000,51,4,9
-0.898320,0.184271,-4.000000,51,4,0
-0.898320,0.207305,-4.000000,53,2,3
-0.896074,0.229763,-3.990000,50,0,1
-0.893828,0.252105,-3.980000,51,0,1
-0.891582,0.274333,-3.970000,49,0,2
-0.891582,0.297194,-3.970000,47,0,6
-0.889336,0.319249,-3.960000,112,95,87
-0.882599,0.339461,-3.930000,66,0,0
-0.880353,0.361171,-3.920000,51,7,11
-0.878107,0.382765,-3.910000,116,105,102
-0.873616,0.403207,-3.890000,115,104,103
-0.866878,0.422325,-3.860000,69,0,5
-0.862387,0.442250,-3.840000,69,8,1
-0.862387,0.464362,-3.840000,73,28,25
-0.860141,0.485208,-3.830000,78,24,10
-0.857895,0.505938,-3.820000,57,35,27
-0.857895,0.527936,-3.820000,143,135,128
-0.857895,0.549933,-3.820000,80,19,17
-0.857895,0.571930,-3.820000,85,27,19
-0.857895,0.593927,-3.820000,87,27,31
-0.857895,0.615925,-3.820000,91,34,35
-0.857895,0.637922,-3.820000,93,33,35
-0.857895,0.659919,-3.820000,88,29,26
-0.860141,0.683702,-3.830000,84,17,21
-0.862387,0.707599,-3.840000,79,17,22
-0.864633,0.731612,-3.850000,78,11,13
-0.866878,0.755740,-3.860000,73,7,9
-0.866878,0.777968,-3.860000,70,5,14
-0.866878,0.800195,-3.860000,66,5,14
-0.866878,0.822423,-3.860000,66,7,16
-0.878107,0.855592,-3.910000,61,8,14
-0.880353,0.880353,-3.920000,59,17,24
-0.893828,0.916747,-3.980000,99,97,98
-1.401379,1.473244,-6.240000,99,97,98
-1.401379,1.509177,-6.240000,101,98,99
-1.401379,1.545110,-6.240000,99,97,98
-1.401379,1.581042,-6.240000,98,96,97
-1.401379,1.616975,-6.240000,101,99,97
-1.401379,1.652908,-6.240000,98,96,95
-1.401379,1.688841,-6.240000,99,97,96
-1.401379,1.724774,-6.240000,98,96,97
-1.401379,1.760706,-6.240000,98,96,97
-1.401379,1.796639,-6.240000,98,96,95
-1.401379,1.832572,-6.240000,95,92,93
-1.401379,1.868505,-6.240000,97,95,93
-1.401379,1.904438,-6.240000,94,91,92
-1.401379,1.940370,-6.240000,92,90,89
-1.401379,1.976303,-6.240000,92,90,89
-1.404834,-1.774527,-6.420000,110,113,112
-1.404834,-1.737557,-6.420000,111,114,113
-1.404834,-1.700588,-6.420000,111,114,111
-1.404834,-1.663619,-6.420000,112,112,110
-1.404834,-1.626649,-6.420000,111,111,109
-1.404834,-1.589680,-6.420000,107,107,107
-1.404834,-1.552711,-6.420000,105,105,103
-1.404834,-1.515742,-6.420000,101,102,97
-1.404834,-1.478772,-6.420000,99,99,97
-1.398269,-1.435066,-6.390000,98,99,94
-1.398269,-1.398269,-6.390000,97,97,95
-1.398269,-1.361472,-6.390000,95,96,91
-1.398269,-1.324676,-6.390000,93,94,89
-1.398269,-1.287879,-6.390000,96,92,89
-1.391704,-1.245209,-6.360000,94,92,90
-1.391704,-1.208585,-6.360000,92,91,87
-1.391704,-1.171962,-6.360000,94,92,88
-1.385140,-1.129982,-6.330000,94,92,88
-1.385140,-1.093531,-6.330000,94,92,88
-1.385140,-1.057080,-6.330000,92,91,87
-1.385140,-1.020629,-6.330000,91,90,84
-1.385140,-0.984178,-6.330000,89,87,85
-1.385140,-0.947727,-6.330000,89,85,82
-1.385140,-0.911276,-6.330000,88,84,81
-1.385140,-0.874825,-6.330000,86,82,79
-1.385140,-0.838374,-6.330000,85,81,75
-1.385140,-0.801923,-6.330000,87,81,79
-1.385140,-0.765472,-6.330000,85,79,72
-1.385140,-0.729021,-6.330000,85,79,76
-1.385140,-0.692570,-6.330000,83,77,70
-1.385140,-0.656119,-6.330000,80,75,68
-1.385140,-0.619668,-6.330000,82,76,69
-1.385140,-0.583217,-6.330000,78,72,67
-1.385140,-0.546766,-6.330000,76,70,65
-1.385140,-0.510315,-6.330000,76,70,65
-1.135683,-0.388523,-5.190000,76,70,65
-1.135683,-0.358637,-5.190000,75,67,61
-1.135683,-0.328750,-5.190000,73,68,61
-1.131307,-0.297712,-5.170000,67,63,62
-1.131307,-0.267941,-5.170000,10,14,33
-1.131307,-0.238170,-5.170000,8,9,32
-1.131307,-0.208399,-5.170000,8,12,29
-1.131307,-0.178627,-5.170000,55,53,54
-1.131307,-0.148856,-5.170000,65,61,58
-1.131307,-0.119085,-5.170000,70,64,61
-1.131307,-0.089314,-5.170000,69,62,60
-1.126930,-0.059312,-5.150000,61,56,62
-0.881850,-0.023207,-4.030000,10,10,26
-0.000000,0.000000,-0.000000,9,8,17
-0.000000,0.000000,-0.000000,46,19,26
-0.000000,0.000000,-0.000000,50,6,12
-0.864345,0.068238,-3.950000,51,4,9
-0.873098,0.091905,-3.990000,51,4,9
-0.877474,0.115457,-4.010000,52,4,7
-0.875286,0.138203,-4.000000,51,3,5
-0.873098,0.160834,-3.990000,52,4,7
-0.873098,0.183810,-3.990000,53,3,1
-0.873098,0.206786,-3.990000,56,1,3
-0.870909,0.229187,-3.980000,55,0,2
-0.870909,0.252105,-3.980000,55,0,0
-0.868721,0.274333,-3.970000,56,0,6
-0.866533,0.296445,-3.960000,53,0,8
-0.866533,0.319249,-3.960000,101,84,76
-0.864345,0.341189,-3.950000,122,88,84
-0.859968,0.362092,-3.930000,115,99,96
-0.857780,0.383744,-3.920000,117,104,99
-0.851215,0.403207,-3.890000,119,107,107
-0.846839,0.423419,-3.870000,69,0,5
-0.842463,0.443401,-3.850000,70,0,1
-0.840274,0.464362,-3.840000,73,8,3
-0.838086,0.485208,-3.830000,79,11,13
-0.838086,0.507263,-3.830000,143,131,124
-0.835898,0.527936,-3.820000,139,131,125
-0.835898,0.549933,-3.820000,66,14,9
-0.835898,0.571930,-3.820000,82,24,19
-0.835898,0.593927,-3.820000,87,27,31
-0.835898,0.615925,-3.820000,92,35,36
-0.835898,0.637922,-3.820000,97,39,43
-0.838086,0.661647,-3.830000,93,39,35
-0.840274,0.685487,-3.840000,84,27,28
-0.840274,0.707599,-3.840000,82,20,22
-0.844651,0.733512,-3.860000,77,13,14
-0.844651,0.755740,-3.860000,75,9,11
-0.844651,0.777968,-3.860000,73,8,14
-0.844651,0.800195,-3.860000,70,7,15
-0.846839,0.824554,-3.870000,69,9,18
-0.857780,0.857780,-3.920000,66,7,16
-0.864345,0.887091,-3.950000,61,9,18
-0.870909,0.916747,-3.980000,58,35,34
-1.365446,1.473244,-6.240000,98,96,95
-1.365446,1.509177,-6.240000,98,96,97
-1.365446,1.545110,-6.240000,99,97,98
-1.365446,1.581042,-6.240000,98,96,97
-1.365446,1.616975,-6.240000,99,97,96
-1.365446,1.652908,-6.240000,98,96,95
-1.365446,1.688841,-6.240000,98,96,95
-1.365446,1.724774,-6.240000,98,96,97
-1.365446,1.760706,-6.240000,98,96,97
-1.365446,1.796639,-6.240000,95,92,93
-1.365446,1.832572,-6.240000,96,93,94
-1.365446,1.868505,-6.240000,95,93,91
-1.365446,1.904438,-6.240000,95,92,93
-1.365446,1.940370,-6.240000,94,92,90
-1.365446,1.976303,-6.240000,95,93,91
-1.367864,-1.774527,-6.420000,111,114,113
-1.367864,-1.737557,-6.420000,110,113,112
-1.367864,-1.700588,-6.420000,113,113,111
-1.367864,-1.663619,-6.420000,112,112,110
-1.367864,-1.626649,-6.420000,111,111,109
-1.367864,-1.589680,-6.420000,107,107,105
-1.367864,-1.552711,-6.420000,104,104,102
-1.367864,-1.515742,-6.420000,102,103,100
-1.367864,-1.478772,-6.420000,100,101,98
-1.367864,-1.441803,-6.420000,98,99,94
-1.361472,-1.398269,-6.390000,95,96,93
-1.361472,-1.361472,-6.390000,95,96,93
-1.361472,-1.324676,-6.390000,95,93,89
-1.361472,-1.287879,-6.390000,95,91,88
-1.355081,-1.245209,-6.360000,92,91,87
-1.355081,-1.208585,-6.360000,94,92,88
-1.355081,-1.171962,-6.360000,91,90,84
-1.348689,-1.129982,-6.330000,90,88,84
-1.348689,-1.093531,-6.330000,91,90,86
-1.348689,-1.057080,-6.330000,90,88,84
-1.348689,-1.020629,-6.330000,87,85,79
-1.348689,-0.984178,-6.330000,88,86,82
-1.348689,-0.947727,-6.330000,88,84,81
-1.348689,-0.911276,-6.330000,88,85,79
-1.348689,-0.874825,-6.330000,87,83,78
-1.348689,-0.838374,-6.330000,84,80,74
-1.348689,-0.801923,-6.330000,84,80,74
-1.348689,-0.765472,-6.330000,84,78,71
-1.348689,-0.729021,-6.330000,82,76,71
-1.348689,-0.692570,-6.330000,82,76,69
-1.348689,-0.656119,-6.330000,82,76,71
-1.348689,-0.619668,-6.330000,80,75,68
-1.348689,-0.583217,-6.330000,79,73,68
-1.348689,-0.546766,-6.330000,77,71,66
-1.348689,-0.510315,-6.330000,76,70,65
-1.105797,-0.388523,-5.190000,75,69,64
-1.105797,-0.358637,-5.190000,74,65,61
-1.105797,-0.328750,-5.190000,73,68,61
-1.101536,-0.297712,-5.170000,13,16,28
-1.105797,-0.268978,-5.190000,10,14,31
-1.105797,-0.239091,-5.190000,7,10,32
-1.105797,-0.209205,-5.190000,63,57,65
-1.101536,-0.178627,-5.170000,59,56,59
-1.101536,-0.148856,-5.170000,68,64,63
-1.101536,-0.119085,-5.170000,71,64,64
-1.101536,-0.089314,-5.170000,71,65,62
-1.101536,-0.059542,-5.170000,19,17,27
-0.000000,-0.000000,-0.000000,45,40,42
-0.000000,0.000000,-0.000000,24,20,30
-0.000000,0.000000,-0.000000,30,11,17
-0.000000,0.000000,-0.000000,51,5,7
-0.830946,0.067374,-3.900000,54,3,9
-0.841599,0.090984,-3.950000,54,1,7
-0.845860,0.114305,-3.970000,55,5,6
-0.845860,0.137166,-3.970000,58,5,5
-0.845860,0.160028,-3.970000,58,5,5
-0.845860,0.182889,-3.970000,57,2,3
-0.845860,0.205750,-3.970000,60,1,3
-0.845860,0.228611,-3.970000,59,1,5
-0.845860,0.251472,-3.970000,59,0,0
-0.845860,0.274333,-3.970000,60,1,3
-0.843729,0.296445,-3.960000,59,4,7
-0.843729,0.319249,-3.960000,106,87,80
-0.841599,0.341189,-3.950000,104,86,81
-0.841599,0.363935,-3.950000,110,95,91
-0.837338,0.384723,-3.930000,114,101,97
-0.833076,0.405280,-3.910000,116,105,104
-0.828815,0.425608,-3.890000,127,116,113
-0.824554,0.445705,-3.870000,155,130,127
-0.820292,0.465571,-3.850000,157,131,119
-0.818162,0.486475,-3.840000,79,8,9
-0.816031,0.507263,-3.830000,151,140,137
-0.816031,0.529318,-3.830000,141,133,127
-0.816031,0.551372,-3.830000,117,92,91
-0.813901,0.571930,-3.820000,82,24,19
-0.813901,0.593927,-3.820000,89,30,32
-0.816031,0.617537,-3.830000,91,34,35
-0.816031,0.639592,-3.830000,97,42,42
-0.816031,0.661647,-3.830000,97,45,42
-0.818162,0.685487,-3.840000,90,35,35
-0.820292,0.709442,-3.850000,84,22,27
-0.822423,0.733512,-3.860000,81,16,20
-0.822423,0.755740,-3.860000,78,11,15
-0.822423,0.777968,-3.860000,75,8,15
-0.824554,0.802268,-3.870000,73,8,14
-0.833076,0.833076,-3.910000,71,8,16
-0.835207,0.857780,-3.920000,67,7,14
-0.841599,0.887091,-3.950000,64,10,17
-0.845860,0.914443,-3.970000,61,20,23
-1.323121,1.466161,-6.210000,99,94,93
-1.329513,1.509177,-6.240000,98,96,97
-1.329513,1.545110,-6.240000,101,98,99
-1.329513,1.581042,-6.240000,99,97,98
-1.329513,1.616975,-6.240000,99,97,98
-1.329513,1.652908,-6.240000,99,97,98
-1.329513,1.688841,-6.240000,98,97,93
-1.329513,1.724774,-6.240000,98,96,97
-1.329513,1.760706,-6.240000,97,95,95
-1.329513,1.796639,-6.240000,96,93,94
-1.329513,1.832572,-6.240000,96,94,92
-1.329513,1.868505,-6.240000,95,93,91
-1.329513,1.904438,-6.240000,95,92,93
-1.329513,1.940370,-6.240000,95,93,91
-1.329513,1.976303,-6.240000,94,92,90
-1.330895,-1.774527,-6.420000,111,114,111
-1.330895,-1.737557,-6.420000,112,115,112
-1.330895,-1.700588,-6.420000,114,114,112
-1.330895,-1.663619,-6.420000,113,113,111
-1.330895,-1.626649,-6.420000,108,109,106
-1.330895,-1.589680,-6.420000,107,107,105
-1.330895,-1.552711,-6.420000,104,104,102
-1.330895,-1.515742,-6.420000,101,102,99
-1.330895,-1.478772,-6.420000,99,99,97
-1.330895,-1.441803,-6.420000,97,98,91
-1.324676,-1.398269,-6.390000,94,95,92
-1.324676,-1.361472,-6.390000,92,92,90
-1.324676,-1.324676,-6.390000,92,91,87
-1.324676,-1.287879,-6.390000,93,89,86
-1.324676,-1.251083,-6.390000,92,91,87
-1.318457,-1.208585,-6.360000,91,90,86
-1.318457,-1.171962,-6.360000,91,90,84
-1.312238,-1.129982,-6.330000,89,87,83
-1.312238,-1.093531,-6.330000,89,87,83
-1.312238,-1.057080,-6.330000,89,87,83
-1.312238,-1.020629,-6.330000,87,85,81
-1.312238,-0.984178,-6.330000,87,83,78
-1.312238,-0.947727,-6.330000,88,84,81
-1.312238,-0.911276,-6.330000,87,85,79
-1.312238,-0.874825,-6.330000,86,82,77
-1.312238,-0.838374,-6.330000,84,80,74
-1.312238,-0.801923,-6.330000,85,81,75
-1.312238,-0.765472,-6.330000,84,78,73
-1.312238,-0.729021,-6.330000,82,76,69
-1.312238,-0.692570,-6.330000,82,76,69
-1.312238,-0.656119,-6.330000,80,74,70
-1.312238,-0.619668,-6.330000,79,74,66
-1.312238,-0.583217,-6.330000,76,70,65
-1.312238,-0.546766,-6.330000,77,71,66
-1.312238,-0.510315,-6.330000,76,70,63
-1.075910,-0.388523,-5.190000,75,67,61
-1.075910,-0.358637,-5.190000,72,66,61
-1.075910,-0.328750,-5.190000,71,65,60
-1.075910,-0.298864,-5.190000,10,14,31
-1.075910,-0.268978,-5.190000,9,13,32
-1.075910,-0.239091,-5.190000,7,11,30
-1.075910,-0.209205,-5.190000,30,30,42
-1.075910,-0.179318,-5.190000,54,51,54
-1.075910,-0.149432,-5.190000,17,13,23
-1.071764,-0.119085,-5.170000,9,9,25
-1.071764,-0.089314,-5.170000,48,41,43
-1.071764,-0.059542,-5.170000,10,12,25
-0.839583,-0.023322,-4.050000,60,51,52
-0.000000,0.000000,-0.000000,28,24,35
-0.000000,0.000000,-0.000000,19,15,26
-0.000000,0.000000,-0.000000,49,6,7
-0.000000,0.000000,-0.000000,55,2,9
-0.804342,0.089371,-3.880000,55,0,4
-0.818853,0.113730,-3.950000,58,5,7
-0.820926,0.136821,-3.960000,59,5,3
-0.820926,0.159624,-3.960000,62,5,4
-0.820926,0.182428,-3.960000,60,3,4
-0.820926,0.205231,-3.960000,59,0,0
-0.820926,0.228035,-3.960000,64,4,6
-0.820926,0.250838,-3.960000,62,4,0
-0.820926,0.273642,-3.960000,66,5,5
-0.820926,0.296445,-3.960000,68,9,11
-0.820926,0.319249,-3.960000,71,11,11
-0.820926,0.342052,-3.960000,93,66,61
-0.820926,0.364856,-3.960000,105,90,86
-0.818853,0.386681,-3.950000,112,100,92
-0.812634,0.406317,-3.920000,114,102,104
-0.810561,0.427796,-3.910000,119,107,107
-0.806415,0.448008,-3.890000,123,114,112
-0.802268,0.467990,-3.870000,85,39,25
-0.798122,0.487741,-3.850000,80,9,10
-0.796049,0.508587,-3.840000,139,131,127
-0.793976,0.529318,-3.830000,141,133,127
-0.793976,0.551372,-3.830000,164,153,148
-0.793976,0.573427,-3.830000,84,23,19
-0.793976,0.595482,-3.830000,89,30,30
-0.793976,0.617537,-3.830000,96,39,40
-0.793976,0.639592,-3.830000,95,41,39
-0.796049,0.663374,-3.840000,97,47,46
-0.798122,0.687272,-3.850000,94,40,40
-0.800195,0.711285,-3.860000,85,23,28
-0.800195,0.733512,-3.860000,83,20,25
-0.800195,0.755740,-3.860000,79,12,18
-0.802268,0.779983,-3.870000,74,7,14
-0.808488,0.808488,-3.900000,73,8,14
-0.812634,0.835207,-3.920000,70,5,14
-0.814707,0.859968,-3.930000,65,5,9
-0.820926,0.889336,-3.960000,65,10,13
-0.820926,0.912140,-3.960000,61,15,19
-0.825072,0.939665,-3.980000,57,38,42
-1.287361,1.501921,-6.210000,98,96,97
-1.293580,1.545110,-6.240000,99,97,98
-1.293580,1.581042,-6.240000,99,97,98
-1.293580,1.616975,-6.240000,99,97,98
-1.293580,1.652908,-6.240000,98,96,95
-1.293580,1.688841,-6.240000,98,97,93
-1.293580,1.724774,-6.240000,97,95,95
-1.293580,1.760706,-6.240000,97,95,95
-1.293580,1.796639,-6.240000,98,96,97
-1.293580,1.832572,-6.240000,98,96,95
-1.293580,1.868505,-6.240000,95,93,91
-1.293580,1.904438,-6.240000,95,92,93
-1.293580,1.940370,-6.240000,95,93,91
-1.293580,1.976303,-6.240000,92,90,89
-1.293926,-1.774527,-6.420000,112,115,112
-1.293926,-1.737557,-6.420000,114,116,113
-1.293926,-1.700588,-6.420000,112,115,112
-1.293926,-1.663619,-6.420000,111,114,111
-1.293926,-1.626649,-6.420000,109,110,107
-1.293926,-1.589680,-6.420000,106,106,104
-1.293926,-1.552711,-6.420000,104,104,104
-1.293926,-1.515742,-6.420000,100,101,98
-1.293926,-1.478772,-6.420000,98,98,96
-1.293926,-1.441803,-6.420000,97,98,91
-1.287879,-1.398269,-6.390000,92,93,88
-1.287879,-1.361472,-6.390000,92,93,88
-1.287879,-1.324676,-6.390000,94,90,87
-1.287879,-1.287879,-6.390000,91,86,83
-1.287879,-1.251083,-6.390000,91,90,82
-1.281833,-1.208585,-6.360000,89,87,83
-1.281833,-1.171962,-6.360000,89,88,81
-1.281833,-1.135338,-6.360000,89,87,83
-1.275787,-1.093531,-6.330000,88,86,82
-1.275787,-1.057080,-6.330000,88,86,82
-1.275787,-1.020629,-6.330000,89,86,80
-1.275787,-0.984178,-6.330000,88,85,77
-1.275787,-0.947727,-6.330000,87,83,78
-1.275787,-0.911276,-6.330000,84,83,79
-1.275787,-0.874825,-6.330000,86,82,77
-1.275787,-0.838374,-6.330000,82,79,73
-1.275787,-0.801923,-6.330000,84,80,74
-1.275787,-0.765472,-6.330000,81,78,72
-1.275787,-0.729021,-6.330000,82,76,69
-1.275787,-0.692570,-6.330000,80,75,68
-1.275787,-0.656119,-6.330000,79,73,68
-1.281833,-0.622605,-6.360000,79,74,66
-1.275787,-0.583217,-6.330000,77,71,68
-1.275787,-0.546766,-6.330000,76,70,65
-1.269740,-0.507896,-6.300000,75,69,62
-1.046024,-0.388523,-5.190000,76,69,60
-1.046024,-0.358637,-5.190000,73,67,63
-1.046024,-0.328750,-5.190000,70,64,61
-1.046024,-0.298864,-5.190000,9,13,32
-1.046024,-0.268978,-5.190000,9,13,32
-1.046024,-0.239091,-5.190000,9,13,30
-1.046024,-0.209205,-5.190000,7,11,30
-1.046024,-0.179318,-5.190000,57,55,58
-1.046024,-0.149432,-5.190000,66,61,65
-1.046024,-0.119546,-5.190000,31,31,47
-1.046024,-0.089659,-5.190000,8,7,23
-1.041993,-0.059542,-5.170000,7,10,23
-1.041993,-0.029771,-5.170000,8,7,25
-0.298288,0.000000,-1.480000,30,26,36
-0.000000,0.000000,-0.000000,12,10,22
-0.000000,0.000000,-0.000000,11,7,19
-0.000000,0.000000,-0.000000,53,2,7
-0.356737,0.040770,-1.770000,62,3,7
-0.784014,0.112002,-3.890000,59,1,7
-0.788045,0.135093,-3.910000,61,4,5
-0.796107,0.159221,-3.950000,60,1,0
-0.796107,0.181967,-3.950000,64,4,6
-0.796107,0.204713,-3.950000,65,6,5
-0.790061,0.225732,-3.920000,66,5,5
-0.796107,0.250205,-3.950000,65,5,0
-0.796107,0.272951,-3.950000,69,8,5
-0.796107,0.295697,-3.950000,71,10,8
-0.798122,0.319249,-3.960000,71,10,8
-0.798122,0.342052,-3.960000,73,12,10
-0.798122,0.364856,-3.960000,95,75,72
-0.796107,0.386681,-3.950000,110,97,90
-0.796107,0.409426,-3.950000,112,100,100
-0.790061,0.428890,-3.920000,117,106,105
-0.786030,0.449160,-3.900000,122,111,108
-0.784014,0.470409,-3.890000,73,3,0
-0.779983,0.490275,-3.870000,76,3,2
-0.775952,0.509912,-3.850000,137,128,124
-0.773937,0.530700,-3.840000,138,130,123
-0.773937,0.552812,-3.840000,162,151,146
-0.773937,0.574925,-3.840000,83,22,17
-0.773937,0.597037,-3.840000,87,28,27
-0.773937,0.619150,-3.840000,93,36,37
-0.773937,0.641262,-3.840000,97,42,40
-0.775952,0.665102,-3.850000,98,50,50
-0.777968,0.689057,-3.860000,93,38,39
-0.777968,0.711285,-3.860000,88,28,34
-0.777968,0.733512,-3.860000,82,19,24
-0.779983,0.757698,-3.870000,78,14,18
-0.781999,0.781999,-3.880000,77,10,12
-0.790061,0.812634,-3.920000,76,11,17
-0.792076,0.837338,-3.930000,73,8,14
-0.796107,0.864345,-3.950000,69,10,10
-0.798122,0.889336,-3.960000,68,10,16
-0.800138,0.914443,-3.970000,64,13,19
-0.802153,0.939665,-3.980000,66,29,33
-1.033931,1.240718,-5.130000,96,92,93
-1.251601,1.537681,-6.210000,98,96,97
-1.257647,1.581042,-6.240000,98,96,95
-1.257647,1.616975,-6.240000,99,97,98
-1.257647,1.652908,-6.240000,99,97,96
-1.257647,1.688841,-6.240000,99,98,94
-1.257647,1.724774,-6.240000,98,96,95
-1.257647,1.760706,-6.240000,97,95,95
-1.257647,1.796639,-6.240000,98,97,93
-1.257647,1.832572,-6.240000,96,94,92
-1.257647,1.868505,-6.240000,96,94,92
-1.257647,1.904438,-6.240000,96,94,92
-1.257647,1.940370,-6.240000,96,94,92
-1.257647,1.976303,-6.240000,92,90,89
-1.262830,-1.782819,-6.450000,114,116,115
-1.262830,-1.745677,-6.450000,112,115,112
-1.256956,-1.700588,-6.420000,112,115,112
-1.256956,-1.663619,-6.420000,111,114,111
-1.256956,-1.626649,-6.420000,109,110,107
-1.256956,-1.589680,-6.420000,107,107,105
-1.256956,-1.552711,-6.420000,104,104,102
-1.256956,-1.515742,-6.420000,100,101,96
-1.256956,-1.478772,-6.420000,99,99,97
-1.256956,-1.441803,-6.420000,97,96,87
-1.251083,-1.398269,-6.390000,94,95,88
-1.251083,-1.361472,-6.390000,92,93,86
-1.251083,-1.324676,-6.390000,94,90,87
-1.251083,-1.287879,-6.390000,93,89,86
-1.251083,-1.251083,-6.390000,90,89,80
-1.251083,-1.214286,-6.390000,89,88,81
-1.245209,-1.171962,-6.360000,90,89,82
-1.245209,-1.135338,-6.360000,88,86,82
-1.239336,-1.093531,-6.330000,88,86,82
-1.239336,-1.057080,-6.330000,88,87,80
-1.239336,-1.020629,-6.330000,89,86,80
-1.239336,-0.984178,-6.330000,88,85,79
-1.239336,-0.947727,-6.330000,87,83,80
-1.239336,-0.911276,-6.330000,84,83,79
-1.239336,-0.874825,-6.330000,86,83,75
-1.239336,-0.838374,-6.330000,85,81,73
-1.239336,-0.801923,-6.330000,84,80,74
-1.239336,-0.765472,-6.330000,84,80,74
-1.245209,-0.732476,-6.360000,82,76,71
-1.245209,-0.695852,-6.360000,79,74,66
-1.245209,-0.659228,-6.360000,78,72,67
-1.245209,-0.622605,-6.360000,78,72,67
-1.239336,-0.583217,-6.330000,79,70,68
-1.239336,-0.546766,-6.330000,75,68,66
-1.023969,-0.421634,-5.230000,73,67,63
-1.016138,-0.388523,-5.190000,74,66,57
-1.016138,-0.358637,-5.190000,71,65,60
-1.016138,-0.328750,-5.190000,71,67,63
-1.016138,-0.298864,-5.190000,10,14,33
-1.016138,-0.268978,-5.190000,8,12,31
-1.016138,-0.239091,-5.190000,8,10,28
-1.016138,-0.209205,-5.190000,5,8,27
-1.016138,-0.179318,-5.190000,8,10,28
-1.016138,-0.149432,-5.190000,31,28,33
-1.016138,-0.119546,-5.190000,77,72,73
-1.016138,-0.089659,-5.190000,69,61,66
-1.012222,-0.059542,-5.170000,26,26,26
-0.888876,-0.026143,-4.540000,8,10,28
-0.886918,0.000000,-4.530000,12,8,19
-0.000000,0.000000,-0.000000,9,7,21
-0.000000,0.000000,-0.000000,9,4,17
-0.000000,0.000000,-0.000000,47,2,8
-0.000000,0.000000,-0.000000,62,3,7
-0.753782,0.110850,-3.850000,65,5,9
-0.761614,0.134402,-3.890000,62,3,5
-0.763572,0.157206,-3.900000,64,3,1
-0.763572,0.179664,-3.900000,65,3,6
-0.763572,0.202122,-3.900000,66,7,6
-0.763572,0.224580,-3.900000,66,5,5
-0.763572,0.247038,-3.900000,68,5,1
-0.767487,0.270878,-3.920000,70,7,5
-0.773361,0.295697,-3.950000,70,9,7
-0.773361,0.318443,-3.950000,71,10,10
-0.775319,0.342052,-3.960000,75,14,9
-0.775319,0.364856,-3.960000,73,15,9
-0.775319,0.387659,-3.960000,96,74,70
-0.773361,0.409426,-3.950000,110,96,94
-0.769445,0.429984,-3.930000,118,104,104
-0.765530,0.450311,-3.910000,123,109,109
-0.763572,0.471618,-3.900000,73,3,0
-0.759656,0.491542,-3.880000,70,7,5
-0.757698,0.512560,-3.870000,134,126,122
-0.755740,0.533464,-3.860000,138,129,125
-0.753782,0.554252,-3.850000,83,43,41
-0.753782,0.576422,-3.850000,83,22,15
-0.753782,0.598592,-3.850000,86,25,21
-0.755740,0.622374,-3.860000,93,33,35
-0.755740,0.644602,-3.860000,100,47,47
-0.755740,0.666830,-3.860000,97,47,46
-0.755740,0.689057,-3.860000,97,42,42
-0.755740,0.711285,-3.860000,88,28,32
-0.757698,0.735413,-3.870000,84,22,27
-0.759656,0.759656,-3.880000,78,15,16
-0.763572,0.786030,-3.900000,79,13,12
-0.767487,0.812634,-3.920000,75,11,14
-0.773361,0.841599,-3.950000,74,9,15
-0.773361,0.864345,-3.950000,73,12,10
-0.775319,0.889336,-3.960000,68,8,17
-0.777277,0.914443,-3.970000,65,11,18
-0.779235,0.939665,-3.980000,65,21,27
-0.781193,0.965003,-3.990000,99,94,95
-1.008306,1.275211,-5.150000,98,96,95
-1.206052,1.560773,-6.160000,99,97,96
-1.221715,1.616975,-6.240000,99,97,98
-1.221715,1.652908,-6.240000,99,97,98
-1.221715,1.688841,-6.240000,99,97,96
-1.221715,1.724774,-6.240000,99,97,96
-1.221715,1.760706,-6.240000,97,95,95
-1.221715,1.796639,-6.240000,97,95,91
-1.221715,1.832572,-6.240000,96,94,90
-1.221715,1.868505,-6.240000,96,94,92
-1.221715,1.904438,-6.240000,96,94,90
-1.221715,1.940370,-6.240000,95,93,91
-1.221715,1.976303,-6.240000,94,92,90
-1.225688,-1.782819,-6.450000,112,115,114
-1.225688,-1.745677,-6.450000,112,115,112
-1.219987,-1.700588,-6.420000,112,115,112
-1.219987,-1.663619,-6.420000,110,113,110
-1.219987,-1.626649,-6.420000,111,111,109
-1.219987,-1.589680,-6.420000,107,107,105
-1.219987,-1.552711,-6.420000,104,104,102
-1.219987,-1.515742,-6.420000,101,102,97
-1.219987,-1.478772,-6.420000,99,98,94
-1.214286,-1.435066,-6.390000,97,96,89
-1.214286,-1.398269,-6.390000,93,95,85
-1.214286,-1.361472,-6.390000,92,93,86
-1.214286,-1.324676,-6.390000,94,90,85
-1.214286,-1.287879,-6.390000,93,89,84
-1.214286,-1.251083,-6.390000,91,90,82
-1.214286,-1.214286,-6.390000,90,89,82
-1.208585,-1.171962,-6.360000,88,87,80
-1.208585,-1.135338,-6.360000,91,86,83
-1.202884,-1.093531,-6.330000,91,86,83
-1.202884,-1.057080,-6.330000,89,86,80
-1.202884,-1.020629,-6.330000,88,85,79
-1.202884,-0.984178,-6.330000,87,83,80
-1.202884,-0.947727,-6.330000,88,85,79
-1.202884,-0.911276,-6.330000,85,84,80
-1.202884,-0.874825,-6.330000,85,81,73
-1.202884,-0.838374,-6.330000,85,81,73
-1.202884,-0.801923,-6.330000,82,79,73
-1.208585,-0.769100,-6.360000,83,77,72
-1.208585,-0.732476,-6.360000,83,76,74
-1.208585,-0.695852,-6.360000,79,73,68
-1.208585,-0.659228,-6.360000,79,73,68
-1.208585,-0.622605,-6.360000,77,71,66
-1.208585,-0.585981,-6.360000,76,67,66
-1.202884,-0.546766,-6.330000,75,68,66
-0.993852,-0.421634,-5.230000,71,65,60
-0.986251,-0.388523,-5.190000,71,65,58
-0.986251,-0.358637,-5.190000,69,63,58
-0.986251,-0.328750,-5.190000,2,8,26
-0.986251,-0.298864,-5.190000,10,16,34
-0.986251,-0.268978,-5.190000,9,13,34
-0.986251,-0.239091,-5.190000,10,11,29
-0.986251,-0.209205,-5.190000,7,9,29
-0.986251,-0.179318,-5.190000,9,8,27
-0.986251,-0.149432,-5.190000,8,7,23
-0.986251,-0.119546,-5.190000,5,7,24
-0.986251,-0.089659,-5.190000,9,9,25
-0.982451,-0.059542,-5.170000,8,8,21
-0.860832,-0.026086,-4.530000,7,6,24
-0.845630,0.000000,-4.450000,8,6,18
-0.334451,0.010135,-1.760000,6,3,18
-0.000000,0.000000,-0.000000,6,4,16
-0.000000,0.000000,-0.000000,29,3,10
-0.000000,0.000000,-0.000000,56,0,0
-0.000000,0.000000,-0.000000,65,5,7
-0.737313,0.134057,-3.880000,68,6,4
-0.737313,0.156400,-3.880000,68,6,4
-0.739213,0.179203,-3.890000,67,3,4
-0.739213,0.201604,-3.890000,66,5,3
-0.739213,0.224004,-3.890000,69,5,6
-0.739213,0.246404,-3.890000,68,5,1
-0.741114,0.269496,-3.900000,70,6,7
-0.743014,0.292702,-3.910000,72,11,11
-0.746815,0.316830,-3.930000,75,11,12
-0.750615,0.341189,-3.950000,77,16,12
-0.750615,0.363935,-3.950000,76,15,10
-0.752515,0.387659,-3.960000,76,14,14
-0.750615,0.409426,-3.950000,103,87,86
-0.750615,0.432172,-3.950000,113,100,100
-0.746815,0.452615,-3.930000,116,98,100
-0.743014,0.472827,-3.910000,76,3,0
-0.741114,0.494076,-3.900000,83,27,23
-0.737313,0.513885,-3.880000,134,123,120
-0.737313,0.536228,-3.880000,134,126,122
-0.735413,0.557131,-3.870000,79,19,10
-0.733512,0.577919,-3.860000,83,20,14
-0.733512,0.600147,-3.860000,84,23,19
-0.733512,0.622374,-3.860000,89,27,29
-0.733512,0.644602,-3.860000,97,42,40
-0.733512,0.666830,-3.860000,94,42,39
-0.733512,0.689057,-3.860000,92,37,37
-0.735413,0.713128,-3.870000,90,31,33
