1.209276,1.194944,-5.250000,0,11,35
1.209276,1.224818,-5.250000,0,13,34
1.209276,1.254691,-5.250000,0,9,32
1.209276,1.284565,-5.250000,0,10,36
1.209276,1.314439,-5.250000,0,8,31
1.213883,1.349433,-5.270000,0,10,32
1.213883,1.379421,-5.270000,2,14,37
1.218490,1.414757,-5.290000,4,17,35
1.218490,1.444858,-5.290000,4,16,39
1.218490,1.474959,-5.290000,0,16,40
1.227703,1.516441,-5.330000,2,17,37
1.227703,1.546770,-5.330000,4,19,38
1.232310,1.583017,-5.350000,4,15,34
1.236917,1.619491,-5.370000,5,18,38
1.236917,1.650047,-5.370000,3,20,40
1.572405,-1.819046,-6.660000,117,120,119
1.572405,-1.781150,-6.660000,118,121,120
1.572405,-1.743253,-6.660000,119,122,121
1.572405,-1.705356,-6.660000,119,122,119
1.572405,-1.667459,-6.660000,121,123,120
1.572405,-1.629562,-6.660000,123,125,125
1.572405,-1.591666,-6.660000,121,123,122
1.572405,-1.553769,-6.660000,122,124,123
1.572405,-1.515872,-6.660000,122,124,123
1.572405,-1.477975,-6.660000,123,125,125
1.572405,-1.440078,-6.660000,124,127,126
1.565322,-1.395866,-6.630000,123,126,123
1.565322,-1.358139,-6.630000,125,128,127
1.565322,-1.320413,-6.630000,124,127,126
1.565322,-1.282687,-6.630000,125,128,127
1.558239,-1.239328,-6.600000,126,126,126
1.558239,-1.201772,-6.600000,127,127,127
1.558239,-1.164217,-6.600000,127,127,125
1.551156,-1.121540,-6.570000,128,128,128
1.551156,-1.084156,-6.570000,129,130,127
1.551156,-1.046771,-6.570000,129,130,127
1.551156,-1.009386,-6.570000,129,130,125
1.551156,-0.972002,-6.570000,129,130,127
1.551156,-0.934617,-6.570000,129,130,127
1.551156,-0.897232,-6.570000,129,130,127
1.551156,-0.859848,-6.570000,130,131,128
1.551156,-0.822463,-6.570000,129,130,127
1.551156,-0.785078,-6.570000,130,131,128
1.551156,-0.747694,-6.570000,130,131,126
1.551156,-0.710309,-6.570000,130,131,128
1.551156,-0.672924,-6.570000,129,130,127
1.551156,-0.635540,-6.570000,130,131,128
1.551156,-0.598155,-6.570000,129,130,127
1.551156,-0.560770,-6.570000,130,131,128
1.551156,-0.523386,-6.570000,129,130,127
1.551156,-0.486001,-6.570000,130,130,130
1.551156,-0.448616,-6.570000,130,131,128
1.551156,-0.411232,-6.570000,129,129,129
1.551156,-0.373847,-6.570000,129,129,129
1.551156,-0.336462,-6.570000,129,129,129
1.551156,-0.299077,-6.570000,130,131,128
1.551156,-0.261693,-6.570000,130,131,128
1.551156,-0.224308,-6.570000,132,132,130
1.551156,-0.186923,-6.570000,129,130,127
1.551156,-0.149539,-6.570000,130,131,128
1.551156,-0.112154,-6.570000,130,131,128
1.551156,-0.074769,-6.570000,129,130,125
1.551156,-0.037385,-6.570000,130,130,130
1.551156,0.000000,-6.570000,130,131,126
1.544073,0.037214,-6.540000,130,130,130
1.544073,0.074428,-6.540000,129,129,129
1.544073,0.111642,-6.540000,129,130,127
1.536990,0.148173,-6.510000,127,127,127
1.536990,0.185216,-6.510000,119,119,119
1.536990,0.222260,-6.510000,108,109,106
1.536990,0.259303,-6.510000,98,98,96
1.536990,0.296346,-6.510000,90,88,84
1.536990,0.333389,-6.510000,84,82,81
1.529907,0.368726,-6.480000,77,75,74
1.529907,0.405598,-6.480000,71,69,68
1.522824,0.440422,-6.450000,66,64,62
1.522824,0.477124,-6.450000,61,57,56
1.329225,0.448502,-5.630000,55,53,52
1.324503,0.478831,-5.610000,36,37,41
1.319781,0.508932,-5.590000,7,17,25
1.312698,0.537839,-5.560000,4,12,30
1.303254,0.565379,-5.520000,7,18,32
1.293811,0.592465,-5.480000,7,18,34
1.293811,0.623647,-5.480000,10,24,37
1.282006,0.648855,-5.430000,12,25,41
1.277284,0.677249,-5.410000,6,19,38
1.272562,0.705415,-5.390000,7,21,37
1.272562,0.736086,-5.390000,10,24,37
1.267840,0.763911,-5.370000,10,24,37
1.263118,0.791508,-5.350000,6,20,36
1.258396,0.818878,-5.330000,6,21,41
1.253674,0.846020,-5.310000,1,19,33
1.253674,0.876236,-5.310000,0,15,33
1.253674,0.906451,-5.310000,0,13,34
1.248952,0.933138,-5.290000,0,9,32
1.244230,0.959597,-5.270000,0,11,31
1.244230,0.989585,-5.270000,0,12,31
1.244230,1.019572,-5.270000,0,12,31
1.244230,1.049559,-5.270000,0,12,29
1.239508,1.075450,-5.250000,0,12,37
1.239508,1.105323,-5.250000,0,10,36
1.239508,1.135197,-5.250000,0,12,33
1.239508,1.165071,-5.250000,0,10,34
1.239508,1.194944,-5.250000,3,15,38
1.239508,1.224818,-5.250000,0,11,35
1.239508,1.254691,-5.250000,0,9,32
1.239508,1.284565,-5.250000,0,9,32
1.239508,1.314439,-5.250000,0,7,30
1.244230,1.349433,-5.270000,0,10,32
1.244230,1.379421,-5.270000,0,9,32
1.248952,1.414757,-5.290000,2,15,33
1.253674,1.450321,-5.310000,2,14,35
1.258396,1.486112,-5.330000,1,16,38
1.258396,1.516441,-5.330000,4,19,38
1.263118,1.552574,-5.350000,5,20,40
1.267840,1.588934,-5.370000,9,22,40
1.267840,1.619491,-5.370000,5,20,40
1.272562,1.656193,-5.390000,4,22,39
1.610756,-1.819046,-6.660000,118,121,120
1.610756,-1.781150,-6.660000,118,121,120
1.618012,-1.751105,-6.690000,118,121,120
1.618012,-1.713038,-6.690000,119,122,121
1.618012,-1.674970,-6.690000,119,122,121
1.618012,-1.636903,-6.690000,121,123,122
1.618012,-1.598835,-6.690000,123,126,123
1.618012,-1.560768,-6.690000,122,125,121
1.610756,-1.515872,-6.660000,123,126,123
1.610756,-1.477975,-6.660000,122,124,123
1.610756,-1.440078,-6.660000,123,126,123
1.610756,-1.402182,-6.660000,124,127,124
1.610756,-1.364285,-6.660000,124,127,126
1.603500,-1.320413,-6.630000,125,128,127
1.603500,-1.282687,-6.630000,124,127,124
1.596245,-1.239328,-6.600000,127,127,125
1.596245,-1.201772,-6.600000,127,127,125
1.596245,-1.164217,-6.600000,128,128,126
1.596245,-1.126662,-6.600000,127,127,125
1.588989,-1.084156,-6.570000,128,128,126
1.588989,-1.046771,-6.570000,128,128,126
1.588989,-1.009386,-6.570000,128,128,126
1.588989,-0.972002,-6.570000,128,128,126
1.588989,-0.934617,-6.570000,128,128,126
1.588989,-0.897232,-6.570000,128,128,126
1.588989,-0.859848,-6.570000,130,131,128
1.588989,-0.822463,-6.570000,128,128,126
1.588989,-0.785078,-6.570000,130,130,130
1.588989,-0.747694,-6.570000,129,130,125
1.588989,-0.710309,-6.570000,129,130,127
1.588989,-0.672924,-6.570000,130,131,128
1.588989,-0.635540,-6.570000,129,130,127
1.588989,-0.598155,-6.570000,129,129,129
1.588989,-0.560770,-6.570000,129,130,127
1.588989,-0.523386,-6.570000,130,131,128
1.588989,-0.486001,-6.570000,129,129,129
1.588989,-0.448616,-6.570000,130,131,128
1.588989,-0.411232,-6.570000,130,130,130
1.588989,-0.373847,-6.570000,130,130,130
1.588989,-0.336462,-6.570000,130,131,128
1.588989,-0.299077,-6.570000,132,132,130
1.588989,-0.261693,-6.570000,132,132,130
1.588989,-0.224308,-6.570000,130,131,128
1.588989,-0.186923,-6.570000,130,131,128
1.588989,-0.149539,-6.570000,130,131,128
1.588989,-0.112154,-6.570000,130,131,126
1.588989,-0.074769,-6.570000,129,130,125
1.588989,-0.037385,-6.570000,130,130,130
1.588989,0.000000,-6.570000,130,131,128
1.581733,0.037214,-6.540000,130,130,130
1.581733,0.074428,-6.540000,129,129,129
1.581733,0.111642,-6.540000,129,129,129
1.581733,0.148856,-6.540000,127,127,127
1.574478,0.185216,-6.510000,121,121,121
1.574478,0.222260,-6.510000,109,110,107
1.574478,0.259303,-6.510000,101,102,99
1.574478,0.296346,-6.510000,94,92,88
1.574478,0.333389,-6.510000,85,83,82
1.574478,0.370433,-6.510000,78,76,75
1.567222,0.405598,-6.480000,73,71,67
1.567222,0.442471,-6.480000,66,64,60
1.559967,0.477124,-6.450000,63,58,57
1.361645,0.448502,-5.630000,56,54,53
1.361645,0.480538,-5.630000,20,28,37
1.351971,0.508932,-5.590000,11,21,29
1.344715,0.537839,-5.560000,3,9,25
1.335041,0.565379,-5.520000,6,17,31
1.325367,0.592465,-5.480000,6,16,33
1.318111,0.620233,-5.450000,10,24,37
1.313274,0.648855,-5.430000,12,25,41
1.308437,0.677249,-5.410000,12,25,41
1.303600,0.705415,-5.390000,2,15,29
1.298763,0.733354,-5.370000,2,15,31
1.293926,0.761066,-5.350000,7,23,36
1.289089,0.788549,-5.330000,5,21,34
1.289089,0.818878,-5.330000,0,15,35
1.284252,0.846020,-5.310000,0,12,31
1.284252,0.876236,-5.310000,0,11,28
1.279414,0.903036,-5.290000,0,9,27
1.279414,0.933138,-5.290000,0,7,28
1.274577,0.959597,-5.270000,0,8,31
1.274577,0.989585,-5.270000,0,8,29
1.274577,1.019572,-5.270000,1,11,31
1.269740,1.045576,-5.250000,0,10,34
1.269740,1.075450,-5.250000,0,11,37
1.269740,1.105323,-5.250000,0,10,36
1.269740,1.135197,-5.250000,0,13,36
1.269740,1.165071,-5.250000,0,13,34
1.269740,1.194944,-5.250000,2,12,36
1.269740,1.224818,-5.250000,0,10,36
1.269740,1.254691,-5.250000,0,10,34
1.269740,1.284565,-5.250000,0,8,31
1.274577,1.319446,-5.270000,0,9,32
1.274577,1.349433,-5.270000,0,13,36
1.279414,1.384656,-5.290000,0,13,36
1.284252,1.420106,-5.310000,0,13,34
1.284252,1.450321,-5.310000,3,16,34
1.289089,1.486112,-5.330000,0,13,36
1.293926,1.522131,-5.350000,5,20,40
1.298763,1.558378,-5.370000,4,19,38
1.298763,1.588934,-5.370000,6,19,38
1.303600,1.625522,-5.390000,4,19,38
1.308437,1.662338,-5.410000,5,23,40
1.656536,-1.827240,-6.690000,117,120,119
1.656536,-1.789173,-6.690000,119,122,121
1.656536,-1.751105,-6.690000,119,122,121
1.656536,-1.713038,-6.690000,121,123,122
1.656536,-1.674970,-6.690000,119,122,119
1.656536,-1.636903,-6.690000,121,123,122
1.656536,-1.598835,-6.690000,122,125,121
1.656536,-1.560768,-6.690000,122,125,121
1.656536,-1.522700,-6.690000,123,126,123
1.649107,-1.477975,-6.660000,123,125,125
1.649107,-1.440078,-6.660000,123,126,123
1.649107,-1.402182,-6.660000,124,127,124
1.649107,-1.364285,-6.660000,123,126,123
1.641679,-1.320413,-6.630000,123,125,125
1.641679,-1.282687,-6.630000,125,128,125
1.634251,-1.239328,-6.600000,126,126,124
1.634251,-1.201772,-6.600000,127,127,125
1.634251,-1.164217,-6.600000,128,128,126
1.634251,-1.126662,-6.600000,128,128,126
1.634251,-1.089106,-6.600000,127,128,123
1.634251,-1.051551,-6.600000,129,130,127
1.634251,-1.013996,-6.600000,129,130,127
1.634251,-0.976440,-6.600000,129,130,127
1.634251,-0.938885,-6.600000,129,130,127
1.626822,-0.897232,-6.570000,128,128,126
1.626822,-0.859848,-6.570000,129,130,127
1.626822,-0.822463,-6.570000,129,129,129
1.626822,-0.785078,-6.570000,129,129,129
1.626822,-0.747694,-6.570000,130,131,128
1.626822,-0.710309,-6.570000,129,130,127
1.626822,-0.672924,-6.570000,130,131,128
1.626822,-0.635540,-6.570000,129,130,127
1.626822,-0.598155,-6.570000,130,130,130
1.626822,-0.560770,-6.570000,129,129,129
1.626822,-0.523386,-6.570000,130,130,130
1.626822,-0.486001,-6.570000,130,130,130
1.626822,-0.448616,-6.570000,129,130,127
1.626822,-0.411232,-6.570000,130,130,130
1.626822,-0.373847,-6.570000,129,129,129
1.626822,-0.336462,-6.570000,129,129,129
1.626822,-0.299077,-6.570000,130,130,130
1.626822,-0.261693,-6.570000,130,130,130
1.626822,-0.224308,-6.570000,132,132,128
1.626822,-0.186923,-6.570000,130,131,128
1.626822,-0.149539,-6.570000,130,131,128
1.626822,-0.112154,-6.570000,129,130,125
1.626822,-0.074769,-6.570000,130,131,128
1.626822,-0.037385,-6.570000,130,131,128
1.626822,0.000000,-6.570000,130,130,130
1.619394,0.037214,-6.540000,130,130,130
1.619394,0.074428,-6.540000,129,129,129
1.619394,0.111642,-6.540000,128,128,128
1.619394,0.148856,-6.540000,125,125,125
1.611965,0.185216,-6.510000,121,121,119
1.611965,0.222260,-6.510000,113,113,111
1.611965,0.259303,-6.510000,105,105,103
1.611965,0.296346,-6.510000,95,96,93
1.611965,0.333389,-6.510000,88,86,84
1.611965,0.370433,-6.510000,81,79,75
1.611965,0.407476,-6.510000,76,75,68
1.604537,0.442471,-6.480000,69,67,63
1.597109,0.477124,-6.450000,61,59,57
1.423779,0.458062,-5.750000,56,54,53
1.394065,0.480538,-5.630000,16,27,35
1.384161,0.508932,-5.590000,5,13,24
1.376732,0.537839,-5.560000,0,9,24
1.366828,0.565379,-5.520000,3,15,27
1.356923,0.592465,-5.480000,6,16,35
1.349495,0.620233,-5.450000,9,22,38
1.344543,0.648855,-5.430000,9,22,38
1.339590,0.677249,-5.410000,12,25,41
1.334638,0.705415,-5.390000,6,20,34
1.329686,0.733354,-5.370000,2,13,30
1.324733,0.761066,-5.350000,2,18,33
1.319781,0.788549,-5.330000,0,15,30
1.319781,0.818878,-5.330000,0,11,34
1.314829,0.846020,-5.310000,0,9,31
1.314829,0.876236,-5.310000,0,10,30
1.309877,0.903036,-5.290000,0,9,27
1.309877,0.933138,-5.290000,0,8,30
1.304924,0.959597,-5.270000,0,8,30
1.304924,0.989585,-5.270000,0,7,30
1.304924,1.019572,-5.270000,0,9,28
1.299972,1.045576,-5.250000,0,6,30
1.299972,1.075450,-5.250000,0,10,34
1.299972,1.105323,-5.250000,0,9,32
1.299972,1.135197,-5.250000,0,12,38
1.299972,1.165071,-5.250000,2,14,37
1.299972,1.194944,-5.250000,0,8,34
1.299972,1.224818,-5.250000,0,10,36
1.304924,1.259471,-5.270000,0,13,36
1.304924,1.289459,-5.270000,0,13,36
1.309877,1.324453,-5.290000,0,11,35
1.309877,1.354555,-5.290000,0,14,39
1.314829,1.389891,-5.310000,3,15,38
1.314829,1.420106,-5.310000,4,14,38
1.319781,1.455783,-5.330000,0,13,34
1.324733,1.491689,-5.350000,0,15,37
1.329686,1.527822,-5.370000,2,18,35
1.329686,1.558378,-5.370000,2,17,37
1.334638,1.594852,-5.390000,5,18,36
1.339590,1.631554,-5.410000,7,24,43
1.339590,1.662338,-5.410000,12,31,45
1.695060,-1.827240,-6.690000,117,120,119
1.695060,-1.789173,-6.690000,119,122,121
1.695060,-1.751105,-6.690000,118,121,120
1.695060,-1.713038,-6.690000,119,122,119
1.695060,-1.674970,-6.690000,118,121,118
1.695060,-1.636903,-6.690000,119,122,121
1.695060,-1.598835,-6.690000,122,125,121
1.695060,-1.560768,-6.690000,122,125,121
1.695060,-1.522700,-6.690000,123,126,123
1.695060,-1.484633,-6.690000,123,126,123
1.687459,-1.440078,-6.660000,123,125,125
1.687459,-1.402182,-6.660000,123,125,125
1.687459,-1.364285,-6.660000,125,128,125
1.687459,-1.326388,-6.660000,124,127,124
1.679858,-1.282687,-6.630000,123,126,123
1.672256,-1.239328,-6.600000,126,126,124
1.672256,-1.201772,-6.600000,126,126,124
1.672256,-1.164217,-6.600000,127,127,125
1.672256,-1.126662,-6.600000,128,128,126
1.672256,-1.089106,-6.600000,128,128,126
1.672256,-1.051551,-6.600000,128,128,126
1.672256,-1.013996,-6.600000,128,128,128
1.672256,-0.976440,-6.600000,129,130,127
1.672256,-0.938885,-6.600000,129,130,127
1.672256,-0.901329,-6.600000,129,130,127
1.664655,-0.859848,-6.570000,129,130,127
1.664655,-0.822463,-6.570000,129,129,129
1.664655,-0.785078,-6.570000,129,129,129
1.664655,-0.747694,-6.570000,129,129,129
1.664655,-0.710309,-6.570000,130,131,128
1.664655,-0.672924,-6.570000,129,130,127
1.664655,-0.635540,-6.570000,129,130,127
1.664655,-0.598155,-6.570000,130,130,130
1.664655,-0.560770,-6.570000,129,129,129
1.664655,-0.523386,-6.570000,128,128,128
1.664655,-0.486001,-6.570000,129,129,129
1.664655,-0.448616,-6.570000,128,128,126
1.664655,-0.411232,-6.570000,130,131,128
1.664655,-0.373847,-6.570000,129,130,127
1.664655,-0.336462,-6.570000,130,130,130
1.664655,-0.299077,-6.570000,130,130,130
1.664655,-0.261693,-6.570000,130,130,130
1.664655,-0.224308,-6.570000,129,130,125
1.672256,-0.187777,-6.600000,132,132,130
1.672256,-0.150222,-6.600000,129,129,129
1.672256,-0.112666,-6.600000,129,130,127
1.664655,-0.074769,-6.570000,130,133,130
1.664655,-0.037385,-6.570000,130,131,128
1.664655,0.000000,-6.570000,130,130,130
1.657054,0.037214,-6.540000,129,129,129
1.657054,0.074428,-6.540000,129,129,129
1.657054,0.111642,-6.540000,130,130,130
1.657054,0.148856,-6.540000,128,128,128
1.657054,0.186070,-6.540000,122,123,120
1.649453,0.222260,-6.510000,115,116,113
1.649453,0.259303,-6.510000,106,106,104
1.649453,0.296346,-6.510000,98,98,98
1.649453,0.333389,-6.510000,90,88,84
1.649453,0.370433,-6.510000,81,80,73
1.649453,0.407476,-6.510000,75,74,67
1.641852,0.442471,-6.480000,68,66,64
1.641852,0.479343,-6.480000,64,62,61
1.456890,0.458062,-5.750000,56,54,53
1.421418,0.478831,-5.610000,16,27,35
1.416351,0.508932,-5.590000,8,14,28
1.403682,0.535904,-5.540000,0,7,22
1.398614,0.565379,-5.520000,4,13,28
1.388480,0.592465,-5.480000,4,15,34
1.380878,0.620233,-5.450000,4,17,33
1.375811,0.648855,-5.430000,7,17,36
1.370744,0.677249,-5.410000,9,22,38
1.365676,0.705415,-5.390000,7,22,31
1.360609,0.733354,-5.370000,2,13,32
1.355541,0.761066,-5.350000,0,16,31
1.350474,0.788549,-5.330000,0,12,29
1.350474,0.818878,-5.330000,0,6,29
1.345406,0.846020,-5.310000,0,10,32
1.345406,0.876236,-5.310000,0,7,28
1.340339,0.903036,-5.290000,0,8,29
1.340339,0.933138,-5.290000,0,9,31
1.335271,0.959597,-5.270000,0,8,30
1.335271,0.989585,-5.270000,0,9,32
1.335271,1.019572,-5.270000,0,7,26
1.335271,1.049559,-5.270000,0,8,29
1.335271,1.079547,-5.270000,0,10,34
1.330204,1.105323,-5.250000,0,9,32
1.330204,1.135197,-5.250000,0,8,33
1.330204,1.165071,-5.250000,0,9,34
1.335271,1.199496,-5.270000,1,8,36
1.335271,1.229484,-5.270000,0,11,37
1.335271,1.259471,-5.270000,0,11,35
1.340339,1.294352,-5.290000,0,11,34
1.340339,1.324453,-5.290000,0,9,32
1.345406,1.359676,-5.310000,0,15,37
1.345406,1.389891,-5.310000,0,12,33
1.350474,1.425455,-5.330000,0,12,33
1.355541,1.461246,-5.350000,2,14,35
1.360609,1.497265,-5.370000,4,18,40
1.360609,1.527822,-5.370000,4,17,35
1.365676,1.564182,-5.390000,7,22,42
1.370744,1.600770,-5.410000,9,21,42
1.375811,1.637586,-5.430000,6,21,39
1.388480,1.683847,-5.480000,14,30,45
1.733584,-1.827240,-6.690000,116,118,118
1.733584,-1.789173,-6.690000,118,121,120
1.733584,-1.751105,-6.690000,119,122,121
1.733584,-1.713038,-6.690000,118,121,120
1.733584,-1.674970,-6.690000,119,122,119
1.733584,-1.636903,-6.690000,119,122,121
1.733584,-1.598835,-6.690000,119,122,119
1.733584,-1.560768,-6.690000,122,125,121
1.733584,-1.522700,-6.690000,122,125,121
1.733584,-1.484633,-6.690000,121,123,120
1.733584,-1.446565,-6.690000,123,125,125
1.725810,-1.402182,-6.660000,124,127,126
1.725810,-1.364285,-6.660000,124,127,124
1.725810,-1.326388,-6.660000,123,126,123
1.718036,-1.282687,-6.630000,125,128,125
1.718036,-1.244961,-6.630000,125,128,125
1.710262,-1.201772,-6.600000,127,127,125
1.710262,-1.164217,-6.600000,128,128,126
1.710262,-1.126662,-6.600000,128,128,126
1.710262,-1.089106,-6.600000,128,128,128
1.710262,-1.051551,-6.600000,127,127,127
1.710262,-1.013996,-6.600000,128,128,128
1.710262,-0.976440,-6.600000,129,129,129
1.710262,-0.938885,-6.600000,129,130,127
1.710262,-0.901329,-6.600000,129,129,129
1.710262,-0.863774,-6.600000,130,130,130
1.702488,-0.822463,-6.570000,130,130,130
1.702488,-0.785078,-6.570000,129,129,129
1.702488,-0.747694,-6.570000,128,128,128
1.702488,-0.710309,-6.570000,129,130,127
1.702488,-0.672924,-6.570000,129,130,127
1.702488,-0.635540,-6.570000,129,129,129
1.702488,-0.598155,-6.570000,130,130,130
1.702488,-0.560770,-6.570000,129,129,129
1.710262,-0.525775,-6.600000,129,129,129
1.710262,-0.488220,-6.600000,130,130,130
1.710262,-0.450665,-6.600000,129,130,127
1.710262,-0.413109,-6.600000,130,131,128
1.702488,-0.373847,-6.570000,129,130,127
1.702488,-0.336462,-6.570000,129,129,129
1.702488,-0.299077,-6.570000,129,130,127
1.702488,-0.261693,-6.570000,129,129,129
1.702488,-0.224308,-6.570000,130,131,128
1.710262,-0.187777,-6.600000,130,131,128
1.710262,-0.150222,-6.600000,132,132,132
1.710262,-0.112666,-6.600000,129,130,127
1.702488,-0.074769,-6.570000,129,132,128
1.702488,-0.037385,-6.570000,129,132,128
1.702488,0.000000,-6.570000,132,132,132
1.694714,0.037214,-6.540000,130,131,128
1.694714,0.074428,-6.540000,130,131,128
1.694714,0.111642,-6.540000,129,129,129
1.694714,0.148856,-6.540000,127,127,127
1.694714,0.186070,-6.540000,125,125,123
1.694714,0.223284,-6.540000,119,119,117
1.686941,0.259303,-6.510000,111,111,109
1.686941,0.296346,-6.510000,100,100,100
1.686941,0.333389,-6.510000,91,92,85
1.694714,0.372140,-6.540000,84,83,79
1.686941,0.407476,-6.510000,76,74,72
1.686941,0.444519,-6.510000,69,67,66
1.679167,0.479343,-6.480000,63,61,60
1.490001,0.458062,-5.750000,55,53,52
1.453723,0.478831,-5.610000,16,23,32
1.448540,0.508932,-5.590000,5,12,28
1.435584,0.535904,-5.540000,0,4,20
1.430401,0.565379,-5.520000,0,6,24
1.420036,0.592465,-5.480000,6,15,32
1.412262,0.620233,-5.450000,5,18,36
1.407079,0.648855,-5.430000,8,18,38
1.401897,0.677249,-5.410000,12,25,41
1.396714,0.705415,-5.390000,9,23,32
1.391532,0.733354,-5.370000,4,15,32
1.386349,0.761066,-5.350000,3,16,34
1.381166,0.788549,-5.330000,0,13,33
1.381166,0.818878,-5.330000,0,9,31
1.381166,0.849207,-5.330000,0,8,30
1.375984,0.876236,-5.310000,0,7,28
1.375984,0.906451,-5.310000,0,7,27
1.370801,0.933138,-5.290000,0,8,30
1.365619,0.959597,-5.270000,0,8,31
1.365619,0.989585,-5.270000,0,9,32
1.365619,1.019572,-5.270000,0,8,27
1.365619,1.049559,-5.270000,0,13,33
1.365619,1.079547,-5.270000,0,12,38
1.365619,1.109534,-5.270000,0,10,34
1.365619,1.139522,-5.270000,0,9,36
1.365619,1.169509,-5.270000,0,10,36
1.365619,1.199496,-5.270000,0,9,36
1.365619,1.229484,-5.270000,0,15,37
1.370801,1.264251,-5.290000,2,13,39
1.370801,1.294352,-5.290000,0,13,36
1.375984,1.329461,-5.310000,0,13,34
1.375984,1.359676,-5.310000,0,13,33
1.381166,1.395126,-5.330000,3,16,34
1.386349,1.430803,-5.350000,2,14,35
1.391532,1.466709,-5.370000,2,14,35
1.391532,1.497265,-5.370000,6,20,43
1.396714,1.533512,-5.390000,5,20,38
1.396714,1.564182,-5.390000,7,22,42
1.401897,1.600770,-5.410000,4,19,38
1.412262,1.643617,-5.450000,7,22,40
1.632523,1.935810,-6.300000,13,29,44
1.772108,-1.827240,-6.690000,117,120,119
1.772108,-1.789173,-6.690000,119,122,121
1.772108,-1.751105,-6.690000,119,122,121
1.772108,-1.713038,-6.690000,118,121,120
1.772108,-1.674970,-6.690000,119,122,119
1.772108,-1.636903,-6.690000,122,124,123
1.782704,-1.608395,-6.730000,119,122,119
1.782704,-1.570100,-6.730000,121,123,120
1.782704,-1.531805,-6.730000,121,123,122
1.782704,-1.493510,-6.730000,122,125,121
1.772108,-1.446565,-6.690000,122,124,123
1.772108,-1.408498,-6.690000,123,126,123
1.764161,-1.364285,-6.660000,124,127,124
1.764161,-1.326388,-6.660000,124,127,124
1.756215,-1.282687,-6.630000,124,127,124
1.756215,-1.244961,-6.630000,125,128,125
1.756215,-1.207235,-6.630000,125,128,125
1.748268,-1.164217,-6.600000,128,128,126
1.748268,-1.126662,-6.600000,128,128,126
1.748268,-1.089106,-6.600000,127,127,125
1.748268,-1.051551,-6.600000,128,128,126
1.748268,-1.013996,-6.600000,128,128,128
1.748268,-0.976440,-6.600000,129,129,129
1.748268,-0.938885,-6.600000,128,128,128
1.748268,-0.901329,-6.600000,128,128,128
1.748268,-0.863774,-6.600000,129,129,129
1.748268,-0.826219,-6.600000,129,130,127
1.740321,-0.785078,-6.570000,130,130,130
1.740321,-0.747694,-6.570000,129,129,129
1.740321,-0.710309,-6.570000,129,130,127
1.740321,-0.672924,-6.570000,129,130,127
1.740321,-0.635540,-6.570000,128,128,128
1.740321,-0.598155,-6.570000,128,128,128
1.748268,-0.563331,-6.600000,129,129,129
1.748268,-0.525775,-6.600000,130,130,130
1.748268,-0.488220,-6.600000,130,130,130
1.748268,-0.450665,-6.600000,130,131,128
1.748268,-0.413109,-6.600000,129,130,127
1.748268,-0.375554,-6.600000,128,128,126
1.748268,-0.337999,-6.600000,129,129,129
1.740321,-0.299077,-6.570000,130,131,128
1.740321,-0.261693,-6.570000,130,131,128
1.748268,-0.225332,-6.600000,130,131,128
1.748268,-0.187777,-6.600000,132,132,132
1.748268,-0.150222,-6.600000,132,132,132
1.740321,-0.112154,-6.570000,130,131,128
1.740321,-0.074769,-6.570000,132,132,130
1.740321,-0.037385,-6.570000,130,131,128
1.740321,0.000000,-6.570000,132,132,132
1.732375,0.037214,-6.540000,130,131,128
1.732375,0.074428,-6.540000,132,132,130
1.732375,0.111642,-6.540000,130,130,130
1.732375,0.148856,-6.540000,128,128,128
1.732375,0.186070,-6.540000,126,126,126
1.732375,0.223284,-6.540000,121,121,121
1.724428,0.259303,-6.510000,113,113,111
1.724428,0.296346,-6.510000,105,105,105
1.732375,0.334926,-6.540000,94,95,88
1.732375,0.372140,-6.540000,84,84,82
1.724428,0.407476,-6.510000,78,76,75
1.724428,0.444519,-6.510000,70,68,67
1.716481,0.479343,-6.480000,64,62,61
1.523112,0.458062,-5.750000,59,57,55
1.491326,0.480538,-5.630000,16,23,32
1.480730,0.508932,-5.590000,4,11,27
1.472783,0.537839,-5.560000,0,4,23
1.462188,0.565379,-5.520000,0,4,22
1.451592,0.592465,-5.480000,0,9,26
1.443646,0.620233,-5.450000,0,9,28
1.438348,0.648855,-5.430000,7,17,38
1.433050,0.677249,-5.410000,6,22,37
1.427752,0.705415,-5.390000,2,16,27
1.422455,0.733354,-5.370000,2,15,31
1.422455,0.763911,-5.370000,4,17,37
1.417157,0.791508,-5.350000,0,13,33
1.411859,0.818878,-5.330000,0,9,31
1.411859,0.849207,-5.330000,0,8,30
1.406561,0.876236,-5.310000,0,7,28
1.406561,0.906451,-5.310000,0,7,27
1.406561,0.936666,-5.310000,0,5,31
1.401263,0.963239,-5.290000,0,7,30
1.395966,0.989585,-5.270000,0,8,33
1.395966,1.019572,-5.270000,0,10,30
1.395966,1.049559,-5.270000,0,13,33
1.395966,1.079547,-5.270000,0,10,36
1.395966,1.109534,-5.270000,0,11,35
1.395966,1.139522,-5.270000,0,9,36
1.395966,1.169509,-5.270000,0,11,37
1.395966,1.199496,-5.270000,0,11,37
1.401263,1.234150,-5.290000,0,14,39
1.401263,1.264251,-5.290000,0,12,38
1.406561,1.299246,-5.310000,0,12,38
1.406561,1.329461,-5.310000,0,12,33
1.411859,1.364797,-5.330000,0,13,34
1.411859,1.395126,-5.330000,0,13,32
1.417157,1.430803,-5.350000,3,15,36
1.422455,1.466709,-5.370000,6,16,37
1.427752,1.502841,-5.390000,6,20,43
1.433050,1.539202,-5.410000,7,22,40
1.438348,1.575790,-5.430000,9,25,42
1.443646,1.612606,-5.450000,4,17,37
1.684695,1.918056,-6.360000,7,21,37
1.716481,1.991118,-6.480000,18,32,45
1.810632,-1.827240,-6.690000,118,121,118
1.810632,-1.789173,-6.690000,116,118,118
1.810632,-1.751105,-6.690000,117,120,119
1.810632,-1.713038,-6.690000,118,121,118
1.810632,-1.674970,-6.690000,121,123,122
1.821458,-1.646690,-6.730000,119,122,121
1.821458,-1.608395,-6.730000,121,123,120
1.821458,-1.570100,-6.730000,122,125,121
1.821458,-1.531805,-6.730000,122,124,123
1.821458,-1.493510,-6.730000,122,125,121
1.821458,-1.455214,-6.730000,123,126,123
1.810632,-1.408498,-6.690000,122,125,121
1.810632,-1.370430,-6.690000,125,128,125
1.802513,-1.326388,-6.660000,124,127,126
1.802513,-1.288491,-6.660000,123,126,123
1.794393,-1.244961,-6.630000,123,126,123
1.794393,-1.207235,-6.630000,125,128,125
1.794393,-1.169509,-6.630000,126,126,124
1.794393,-1.131783,-6.630000,127,128,123
1.794393,-1.094057,-6.630000,129,130,127
1.786274,-1.051551,-6.600000,128,128,126
1.786274,-1.013996,-6.600000,129,130,127
1.786274,-0.976440,-6.600000,128,128,128
1.786274,-0.938885,-6.600000,127,127,127
1.786274,-0.901329,-6.600000,128,130,129
1.786274,-0.863774,-6.600000,129,129,129
1.786274,-0.826219,-6.600000,128,128,126
1.778155,-0.785078,-6.570000,129,130,127
1.778155,-0.747694,-6.570000,128,128,126
1.778155,-0.710309,-6.570000,129,130,127
1.778155,-0.672924,-6.570000,128,128,126
1.778155,-0.635540,-6.570000,129,129,129
1.778155,-0.598155,-6.570000,129,129,129
1.786274,-0.563331,-6.600000,128,128,128
1.786274,-0.525775,-6.600000,128,128,128
1.786274,-0.488220,-6.600000,129,129,131
1.786274,-0.450665,-6.600000,129,129,129
1.786274,-0.413109,-6.600000,129,129,129
1.786274,-0.375554,-6.600000,129,129,129
1.786274,-0.337999,-6.600000,129,130,127
1.786274,-0.300443,-6.600000,129,130,127
1.786274,-0.262888,-6.600000,130,130,130
1.786274,-0.225332,-6.600000,130,131,128
1.786274,-0.187777,-6.600000,130,130,130
1.786274,-0.150222,-6.600000,129,129,129
1.778155,-0.112154,-6.570000,130,130,130
1.778155,-0.074769,-6.570000,130,131,128
1.778155,-0.037385,-6.570000,129,129,129
1.778155,0.000000,-6.570000,130,130,130
1.770035,0.037214,-6.540000,130,131,128
1.770035,0.074428,-6.540000,130,130,130
1.770035,0.111642,-6.540000,130,131,128
1.770035,0.148856,-6.540000,129,130,127
1.770035,0.186070,-6.540000,126,126,126
1.770035,0.223284,-6.540000,122,122,122
1.770035,0.260498,-6.540000,116,116,116
1.770035,0.297712,-6.540000,107,107,107
1.770035,0.334926,-6.540000,98,98,96
1.770035,0.372140,-6.540000,88,89,86
1.761916,0.407476,-6.510000,83,81,77
1.761916,0.444519,-6.510000,73,71,69
1.753796,0.479343,-6.480000,64,62,61
1.556224,0.458062,-5.750000,60,57,58
1.523746,0.480538,-5.630000,19,27,36
1.512920,0.508932,-5.590000,2,8,24
1.504800,0.537839,-5.560000,0,1,21
1.488562,0.563331,-5.500000,0,2,19
1.483149,0.592465,-5.480000,0,6,24
1.475029,0.620233,-5.450000,0,8,27
1.469616,0.648855,-5.430000,0,13,34
1.464203,0.677249,-5.410000,2,18,33
1.458790,0.705415,-5.390000,6,20,34
1.453377,0.733354,-5.370000,4,17,35
1.453377,0.763911,-5.370000,4,17,35
1.447964,0.791508,-5.350000,0,13,34
1.447964,0.821951,-5.350000,0,12,31
1.442552,0.849207,-5.330000,0,7,30
1.442552,0.879536,-5.330000,0,6,27
1.437139,0.906451,-5.310000,0,9,29
1.437139,0.936666,-5.310000,0,6,32
1.431726,0.963239,-5.290000,0,6,32
1.431726,0.993340,-5.290000,0,6,32
1.426313,1.019572,-5.270000,0,8,29
1.426313,1.049559,-5.270000,0,12,33
1.426313,1.079547,-5.270000,0,12,35
1.426313,1.109534,-5.270000,0,11,31
1.426313,1.139522,-5.270000,0,13,38
1.426313,1.169509,-5.270000,2,13,39
1.431726,1.204049,-5.290000,0,10,36
1.431726,1.234150,-5.290000,0,12,35
1.431726,1.264251,-5.290000,0,11,35
1.437139,1.299246,-5.310000,0,12,38
1.437139,1.329461,-5.310000,0,12,33
1.442552,1.364797,-5.330000,0,11,35
1.447964,1.400361,-5.350000,0,10,28
1.453377,1.436152,-5.370000,0,11,31
1.458790,1.472171,-5.390000,7,17,36
1.464203,1.508418,-5.410000,6,21,41
1.469616,1.544892,-5.430000,7,20,39
1.475029,1.581594,-5.450000,8,24,41
1.721319,1.881866,-6.360000,7,20,39
1.753796,1.954246,-6.480000,7,21,37
1.761916,2.000337,-6.510000,57,69,67
1.849156,-1.827240,-6.690000,117,120,119
1.849156,-1.789173,-6.690000,118,121,120
1.849156,-1.751105,-6.690000,118,121,120
1.849156,-1.713038,-6.690000,118,121,118
1.849156,-1.674970,-6.690000,119,122,121
1.860213,-1.646690,-6.730000,119,122,121
1.860213,-1.608395,-6.730000,119,122,119
1.860213,-1.570100,-6.730000,119,122,121
1.860213,-1.531805,-6.730000,122,124,123
1.860213,-1.493510,-6.730000,123,126,123
1.860213,-1.455214,-6.730000,122,125,121
1.849156,-1.408498,-6.690000,122,125,119
1.849156,-1.370430,-6.690000,124,127,126
1.840864,-1.326388,-6.660000,123,125,125
1.840864,-1.288491,-6.660000,124,127,124
1.832572,-1.244961,-6.630000,123,126,123
1.832572,-1.207235,-6.630000,126,129,126
1.832572,-1.169509,-6.630000,125,128,125
1.832572,-1.131783,-6.630000,127,128,123
1.832572,-1.094057,-6.630000,125,128,125
1.832572,-1.056331,-6.630000,128,128,126
1.832572,-1.018605,-6.630000,127,127,125
1.832572,-0.980878,-6.630000,128,128,126
1.832572,-0.943152,-6.630000,129,129,129
1.824280,-0.901329,-6.600000,128,130,129
1.824280,-0.863774,-6.600000,129,129,129
1.824280,-0.826219,-6.600000,129,130,125
1.824280,-0.788663,-6.600000,129,130,127
1.815988,-0.747694,-6.570000,129,130,125
1.815988,-0.710309,-6.570000,128,128,126
1.815988,-0.672924,-6.570000,129,129,129
1.815988,-0.635540,-6.570000,128,128,128
1.824280,-0.600886,-6.600000,127,127,127
1.824280,-0.563331,-6.600000,124,126,128
1.824280,-0.525775,-6.600000,124,127,126
1.824280,-0.488220,-6.600000,126,129,128
1.824280,-0.450665,-6.600000,128,128,128
1.824280,-0.413109,-6.600000,128,128,128
1.824280,-0.375554,-6.600000,129,129,129
1.824280,-0.337999,-6.600000,129,130,127
1.824280,-0.300443,-6.600000,129,130,127
1.824280,-0.262888,-6.600000,129,130,127
1.824280,-0.225332,-6.600000,130,130,130
1.824280,-0.187777,-6.600000,129,129,129
1.824280,-0.150222,-6.600000,130,130,130
1.815988,-0.112154,-6.570000,132,132,132
1.815988,-0.074769,-6.570000,130,131,128
1.815988,-0.037385,-6.570000,130,130,130
1.815988,0.000000,-6.570000,132,132,130
1.815988,0.037385,-6.570000,129,130,127
1.807695,0.074428,-6.540000,130,130,130
1.807695,0.111642,-6.540000,130,131,128
1.815988,0.149539,-6.570000,129,130,127
1.807695,0.186070,-6.540000,128,128,128
1.807695,0.223284,-6.540000,126,126,126
1.807695,0.260498,-6.540000,120,120,120
1.807695,0.297712,-6.540000,112,112,112
1.807695,0.334926,-6.540000,102,102,102
1.807695,0.372140,-6.540000,92,92,90
1.799403,0.407476,-6.510000,85,84,80
1.799403,0.444519,-6.510000,74,71,72
1.791111,0.479343,-6.480000,67,65,61
1.589335,0.458062,-5.750000,60,58,56
1.556166,0.480538,-5.630000,18,26,35
1.545110,0.508932,-5.590000,4,13,26
1.536818,0.537839,-5.560000,0,5,25
1.520233,0.563331,-5.500000,0,3,20
1.514705,0.592465,-5.480000,0,4,22
1.506413,0.620233,-5.450000,0,6,26
1.500885,0.648855,-5.430000,0,13,34
1.495357,0.677249,-5.410000,2,18,33
1.489828,0.705415,-5.390000,6,21,39
1.484300,0.733354,-5.370000,5,18,36
1.478772,0.761066,-5.350000,4,17,35
1.478772,0.791508,-5.350000,0,12,33
1.478772,0.821951,-5.350000,0,11,30
1.473244,0.849207,-5.330000,0,7,30
1.473244,0.879536,-5.330000,0,7,28
1.473244,0.909865,-5.330000,0,10,30
1.467716,0.936666,-5.310000,0,8,33
1.467716,0.966881,-5.310000,0,8,32
1.462188,0.993340,-5.290000,0,8,31
1.462188,1.023441,-5.290000,0,12,33
1.462188,1.053542,-5.290000,0,10,34
1.456660,1.079547,-5.270000,0,13,36
1.456660,1.109534,-5.270000,0,10,30
1.456660,1.139522,-5.270000,0,11,36
1.462188,1.173947,-5.290000,0,10,36
1.462188,1.204049,-5.290000,0,10,36
1.462188,1.234150,-5.290000,0,12,31
1.462188,1.264251,-5.290000,0,12,33
1.467716,1.299246,-5.310000,0,10,34
1.473244,1.334468,-5.330000,0,11,31
1.478772,1.369918,-5.350000,0,5,31
1.484300,1.405596,-5.370000,0,9,28
1.489828,1.441501,-5.390000,0,12,33
1.495357,1.477634,-5.410000,6,20,36
1.500885,1.513994,-5.430000,7,22,42
1.506413,1.550582,-5.450000,9,22,40
1.757942,1.845677,-6.360000,8,24,41
1.791111,1.917373,-6.480000,11,23,37
1.791111,1.954246,-6.480000,45,58,63
1.799403,2.000337,-6.510000,107,114,114
1.887680,-1.827240,-6.690000,116,118,118
1.887680,-1.789173,-6.690000,117,120,119
1.887680,-1.751105,-6.690000,117,120,119
1.887680,-1.713038,-6.690000,119,122,119
1.887680,-1.674970,-6.690000,121,123,120
1.898967,-1.646690,-6.730000,121,123,122
1.898967,-1.608395,-6.730000,121,123,122
1.898967,-1.570100,-6.730000,119,122,121
1.898967,-1.531805,-6.730000,122,125,121
1.898967,-1.493510,-6.730000,121,123,122
1.898967,-1.455214,-6.730000,122,125,119
1.887680,-1.408498,-6.690000,123,126,123
1.887680,-1.370430,-6.690000,122,125,121
1.879215,-1.326388,-6.660000,124,127,126
1.879215,-1.288491,-6.660000,124,127,124
1.870751,-1.244961,-6.630000,125,128,125
1.870751,-1.207235,-6.630000,125,128,127
1.870751,-1.169509,-6.630000,125,128,127
1.870751,-1.131783,-6.630000,126,130,124
1.870751,-1.094057,-6.630000,126,129,126
1.870751,-1.056331,-6.630000,128,128,126
1.870751,-1.018605,-6.630000,128,128,126
1.870751,-0.980878,-6.630000,129,129,129
1.870751,-0.943152,-6.630000,129,129,129
1.870751,-0.905426,-6.630000,128,130,129
1.862286,-0.863774,-6.600000,126,129,128
1.862286,-0.826219,-6.600000,129,130,125
1.862286,-0.788663,-6.600000,128,128,128
1.862286,-0.751108,-6.600000,128,128,126
1.853821,-0.710309,-6.570000,125,128,127
1.853821,-0.672924,-6.570000,128,128,128
1.853821,-0.635540,-6.570000,127,127,127
1.862286,-0.600886,-6.600000,112,116,117
1.862286,-0.563331,-6.600000,73,99,104
1.862286,-0.525775,-6.600000,77,100,108
1.862286,-0.488220,-6.600000,75,101,110
1.862286,-0.450665,-6.600000,69,93,98
1.862286,-0.413109,-6.600000,118,121,120
1.862286,-0.375554,-6.600000,126,129,128
1.862286,-0.337999,-6.600000,129,129,129
1.862286,-0.300443,-6.600000,129,130,127
1.862286,-0.262888,-6.600000,130,131,128
1.862286,-0.225332,-6.600000,129,129,129
1.862286,-0.187777,-6.600000,128,128,128
1.862286,-0.150222,-6.600000,132,132,130
1.853821,-0.112154,-6.570000,130,130,130
1.853821,-0.074769,-6.570000,130,130,130
1.853821,-0.037385,-6.570000,132,132,132
1.853821,0.000000,-6.570000,130,131,128
1.853821,0.037385,-6.570000,130,130,130
1.853821,0.074769,-6.570000,130,131,128
1.853821,0.112154,-6.570000,130,131,128
1.853821,0.149539,-6.570000,129,129,129
1.845356,0.186070,-6.540000,128,128,128
1.845356,0.223284,-6.540000,126,126,126
1.845356,0.260498,-6.540000,120,120,120
1.845356,0.297712,-6.540000,114,114,114
1.845356,0.334926,-6.540000,107,107,107
1.845356,0.372140,-6.540000,95,96,93
1.836891,0.407476,-6.510000,85,86,81
1.836891,0.444519,-6.510000,77,75,74
1.828426,0.479343,-6.480000,71,69,68
1.588586,0.448502,-5.630000,63,61,60
1.588586,0.480538,-5.630000,18,26,33
1.577299,0.508932,-5.590000,1,11,23
1.568835,0.537839,-5.560000,0,4,24
1.551905,0.563331,-5.500000,0,4,24
1.546261,0.592465,-5.480000,0,2,22
1.537796,0.620233,-5.450000,0,1,23
1.532153,0.648855,-5.430000,0,10,30
1.526510,0.677249,-5.410000,3,16,32
1.520867,0.705415,-5.390000,5,20,38
1.515223,0.733354,-5.370000,4,15,34
1.515223,0.763911,-5.370000,0,13,32
1.509580,0.791508,-5.350000,0,13,34
1.509580,0.821951,-5.350000,0,10,30
1.509580,0.852394,-5.350000,0,6,27
1.503937,0.879536,-5.330000,0,6,29
1.503937,0.909865,-5.330000,0,8,29
1.498293,0.936666,-5.310000,0,7,30
1.498293,0.966881,-5.310000,0,10,30
1.492650,0.993340,-5.290000,0,7,31
1.492650,1.023441,-5.290000,0,12,31
1.492650,1.053542,-5.290000,0,12,35
1.492650,1.083644,-5.290000,0,13,34
1.492650,1.113745,-5.290000,0,8,29
1.492650,1.143846,-5.290000,0,10,38
1.492650,1.173947,-5.290000,0,9,34
1.492650,1.204049,-5.290000,0,9,34
1.492650,1.234150,-5.290000,0,13,33
1.498293,1.269031,-5.310000,0,11,31
1.503937,1.304139,-5.330000,0,13,33
1.509580,1.339476,-5.350000,0,11,31
1.515223,1.375039,-5.370000,0,10,34
1.515223,1.405596,-5.370000,0,10,30
1.526510,1.446850,-5.410000,0,13,34
1.532153,1.483096,-5.430000,9,22,38
1.537796,1.519571,-5.450000,4,22,41
1.551905,1.564808,-5.500000,7,20,41
1.819961,1.871795,-6.450000,9,25,40
1.828426,1.917373,-6.480000,13,24,38
1.836891,1.963293,-6.510000,108,115,117
1.836891,2.000337,-6.510000,105,111,113
1.926205,-1.827240,-6.690000,117,120,119
1.926205,-1.789173,-6.690000,118,121,120
1.926205,-1.751105,-6.690000,117,122,120
1.926205,-1.713038,-6.690000,119,122,121
1.926205,-1.674970,-6.690000,121,123,120
1.937721,-1.646690,-6.730000,121,123,122
1.937721,-1.608395,-6.730000,121,123,122
1.937721,-1.570100,-6.730000,121,123,122
1.937721,-1.531805,-6.730000,122,125,121
1.937721,-1.493510,-6.730000,122,124,123
1.937721,-1.455214,-6.730000,123,126,123
1.926205,-1.408498,-6.690000,124,127,124
1.926205,-1.370430,-6.690000,124,127,124
1.917567,-1.326388,-6.660000,124,127,126
1.917567,-1.288491,-6.660000,124,127,124
1.917567,-1.250594,-6.660000,124,127,126
1.908929,-1.207235,-6.630000,125,128,127
1.908929,-1.169509,-6.630000,125,128,127
1.908929,-1.131783,-6.630000,125,128,123
1.908929,-1.094057,-6.630000,125,128,125
1.908929,-1.056331,-6.630000,129,130,127
1.908929,-1.018605,-6.630000,129,130,127
1.908929,-0.980878,-6.630000,125,128,127
1.908929,-0.943152,-6.630000,129,129,129
1.908929,-0.905426,-6.630000,128,130,129
1.908929,-0.867700,-6.630000,128,130,129
1.900291,-0.826219,-6.600000,129,130,123
1.900291,-0.788663,-6.600000,128,128,128
1.900291,-0.751108,-6.600000,129,129,129
1.900291,-0.713552,-6.600000,125,128,127
1.900291,-0.675997,-6.600000,125,125,125
1.900291,-0.638442,-6.600000,86,93,91
1.900291,-0.600886,-6.600000,80,100,100
1.900291,-0.563331,-6.600000,73,99,104
1.900291,-0.525775,-6.600000,84,108,113
1.900291,-0.488220,-6.600000,74,100,109
1.900291,-0.450665,-6.600000,79,104,114
1.900291,-0.413109,-6.600000,73,93,95
1.900291,-0.375554,-6.600000,129,131,130
1.900291,-0.337999,-6.600000,128,128,128
1.900291,-0.300443,-6.600000,129,129,129
1.900291,-0.262888,-6.600000,129,130,127
1.900291,-0.225332,-6.600000,129,129,129
1.900291,-0.187777,-6.600000,130,130,130
1.900291,-0.150222,-6.600000,130,131,128
1.891654,-0.112154,-6.570000,132,132,130
1.891654,-0.074769,-6.570000,130,130,130
1.891654,-0.037385,-6.570000,132,132,132
1.891654,0.000000,-6.570000,132,132,132
1.891654,0.037385,-6.570000,130,130,130
1.891654,0.074769,-6.570000,132,132,130
1.891654,0.112154,-6.570000,132,132,130
1.891654,0.149539,-6.570000,129,129,129
1.891654,0.186923,-6.570000,128,128,128
1.883016,0.223284,-6.540000,126,126,126
1.883016,0.260498,-6.540000,122,122,122
1.883016,0.297712,-6.540000,116,116,116
1.883016,0.334926,-6.540000,109,109,109
1.883016,0.372140,-6.540000,100,101,98
1.874378,0.407476,-6.510000,88,89,86
1.874378,0.444519,-6.510000,80,81,76
1.865741,0.479343,-6.480000,73,71,69
1.621006,0.448502,-5.630000,63,62,58
1.615248,0.478831,-5.610000,25,31,38
1.609489,0.508932,-5.590000,1,7,23
1.600852,0.537839,-5.560000,0,4,23
1.583576,0.563331,-5.500000,0,2,22
1.577818,0.592465,-5.480000,0,0,21
1.569180,0.620233,-5.450000,0,4,26
1.563422,0.648855,-5.430000,0,2,23
1.557663,0.677249,-5.410000,0,10,26
1.551905,0.705415,-5.390000,0,12,31
1.546146,0.733354,-5.370000,1,11,31
1.546146,0.763911,-5.370000,0,10,29
1.540388,0.791508,-5.350000,0,8,30
1.540388,0.821951,-5.350000,0,8,29
1.540388,0.852394,-5.350000,0,8,29
1.534629,0.879536,-5.330000,0,7,30
1.534629,0.909865,-5.330000,0,7,30
1.528871,0.936666,-5.310000,0,6,29
1.528871,0.966881,-5.310000,0,9,30
1.528871,0.997096,-5.310000,0,10,34
1.523112,1.023441,-5.290000,0,12,35
1.523112,1.053542,-5.290000,0,12,35
1.523112,1.083644,-5.290000,0,12,33
1.523112,1.113745,-5.290000,0,13,36
1.523112,1.143846,-5.290000,0,10,38
1.523112,1.173947,-5.290000,0,10,36
1.523112,1.204049,-5.290000,0,9,34
1.528871,1.238816,-5.310000,0,11,34
1.528871,1.269031,-5.310000,0,12,33
1.534629,1.304139,-5.330000,0,14,32
1.540388,1.339476,-5.350000,0,13,33
1.546146,1.375039,-5.370000,0,12,37
1.551905,1.410831,-5.390000,0,11,31
1.557663,1.446850,-5.410000,0,12,35
1.563422,1.483096,-5.430000,9,22,38
1.577818,1.527935,-5.480000,7,22,42
1.857103,1.835093,-6.450000,12,27,45
1.865741,1.880501,-6.480000,13,29,44
1.865741,1.917373,-6.480000,103,110,114
1.874378,1.963293,-6.510000,106,112,115
1.874378,2.000337,-6.510000,105,111,113
1.964729,-1.827240,-6.690000,116,120,119
1.964729,-1.789173,-6.690000,117,122,120
1.964729,-1.751105,-6.690000,117,122,120
1.964729,-1.713038,-6.690000,119,122,121
1.976476,-1.684985,-6.730000,118,121,120
1.976476,-1.646690,-6.730000,121,123,122
1.976476,-1.608395,-6.730000,121,123,120
1.976476,-1.570100,-6.730000,121,123,122
1.976476,-1.531805,-6.730000,121,123,122
1.976476,-1.493510,-6.730000,122,124,123
1.964729,-1.446565,-6.690000,123,125,125
1.964729,-1.408498,-6.690000,124,127,124
1.964729,-1.370430,-6.690000,125,128,127
1.964729,-1.332363,-6.690000,123,125,125
1.955918,-1.288491,-6.660000,124,127,124
1.955918,-1.250594,-6.660000,124,127,124
1.955918,-1.212698,-6.660000,124,127,126
1.947108,-1.169509,-6.630000,124,127,126
1.947108,-1.131783,-6.630000,126,130,124
1.947108,-1.094057,-6.630000,126,129,126
1.947108,-1.056331,-6.630000,126,129,126
1.947108,-1.018605,-6.630000,126,129,126
1.947108,-0.980878,-6.630000,128,130,129
1.947108,-0.943152,-6.630000,128,128,128
1.947108,-0.905426,-6.630000,128,128,126
1.947108,-0.867700,-6.630000,129,131,130
1.947108,-0.829974,-6.630000,129,132,124
1.938297,-0.788663,-6.600000,126,129,128
1.938297,-0.751108,-6.600000,129,129,129
1.938297,-0.713552,-6.600000,126,129,128
1.938297,-0.675997,-6.600000,88,108,111
1.938297,-0.638442,-6.600000,103,113,107
1.938297,-0.600886,-6.600000,86,109,108
1.938297,-0.563331,-6.600000,74,102,108
1.938297,-0.525775,-6.600000,74,100,109
1.938297,-0.488220,-6.600000,72,100,111
1.938297,-0.450665,-6.600000,74,99,111
1.938297,-0.413109,-6.600000,69,93,96
1.947108,-0.377261,-6.630000,87,101,101
1.947108,-0.339535,-6.630000,124,127,126
1.947108,-0.301809,-6.630000,128,128,128
1.947108,-0.264083,-6.630000,128,128,128
1.938297,-0.225332,-6.600000,129,129,129
1.938297,-0.187777,-6.600000,129,129,129
1.938297,-0.150222,-6.600000,130,130,130
1.929487,-0.112154,-6.570000,132,132,130
1.929487,-0.074769,-6.570000,132,132,132
1.929487,-0.037385,-6.570000,130,130,130
1.929487,0.000000,-6.570000,130,130,130
1.929487,0.037385,-6.570000,130,131,128
1.929487,0.074769,-6.570000,130,131,128
1.929487,0.112154,-6.570000,130,131,128
1.929487,0.149539,-6.570000,128,128,128
1.929487,0.186923,-6.570000,128,128,128
1.920676,0.223284,-6.540000,127,127,127
1.920676,0.260498,-6.540000,123,123,123
1.920676,0.297712,-6.540000,117,119,121
1.920676,0.334926,-6.540000,114,114,114
1.920676,0.372140,-6.540000,104,104,104
1.920676,0.409354,-6.540000,94,95,92
1.911866,0.444519,-6.510000,83,83,79
1.903055,0.479343,-6.480000,73,74,71
1.653426,0.448502,-5.630000,66,64,60
1.647553,0.478831,-5.610000,23,29,36
1.647553,0.510753,-5.610000,2,8,26
1.641679,0.540741,-5.590000,0,4,23
1.621121,0.565379,-5.520000,0,3,22
1.609374,0.592465,-5.480000,0,2,25
1.600564,0.620233,-5.450000,0,4,26
1.594690,0.648855,-5.430000,0,2,23
1.588816,0.677249,-5.410000,0,6,25
1.588816,0.708033,-5.410000,0,5,27
1.582943,0.736086,-5.390000,0,6,26
1.577069,0.763911,-5.370000,0,10,26
1.571196,0.791508,-5.350000,0,7,30
1.571196,0.821951,-5.350000,0,7,28
1.571196,0.852394,-5.350000,0,9,27
1.565322,0.879536,-5.330000,0,6,28
1.565322,0.909865,-5.330000,0,6,32
1.559448,0.936666,-5.310000,0,7,28
1.559448,0.966881,-5.310000,0,11,31
1.559448,0.997096,-5.310000,0,11,35
1.553575,1.023441,-5.290000,0,11,34
1.553575,1.053542,-5.290000,0,13,36
1.553575,1.083644,-5.290000,0,13,36
1.553575,1.113745,-5.290000,0,11,35
1.553575,1.143846,-5.290000,0,13,40
1.553575,1.173947,-5.290000,0,10,36
1.559448,1.208601,-5.310000,0,8,33
1.559448,1.238816,-5.310000,0,11,34
1.559448,1.269031,-5.310000,0,8,29
1.565322,1.304139,-5.330000,0,13,31
1.571196,1.339476,-5.350000,0,13,34
1.577069,1.375039,-5.370000,0,10,34
1.582943,1.410831,-5.390000,0,10,30
1.594690,1.452199,-5.430000,0,13,33
1.600564,1.488559,-5.450000,0,13,33
1.615248,1.533512,-5.500000,7,22,42
1.903055,1.843628,-6.480000,16,29,47
1.903055,1.880501,-6.480000,25,38,54
1.911866,1.926250,-6.510000,107,113,118
1.911866,1.963293,-6.510000,107,113,116
1.911866,2.000337,-6.510000,106,112,115
2.015230,-1.838166,-6.730000,116,120,119
2.003253,-1.789173,-6.690000,117,122,120
2.015230,-1.761575,-6.730000,118,123,121
2.015230,-1.723280,-6.730000,118,123,121
2.015230,-1.684985,-6.730000,119,122,121
2.015230,-1.646690,-6.730000,119,122,121
2.015230,-1.608395,-6.730000,119,122,121
2.015230,-1.570100,-6.730000,121,123,122
2.015230,-1.531805,-6.730000,121,123,122
2.015230,-1.493510,-6.730000,122,124,123
2.003253,-1.446565,-6.690000,121,123,122
2.003253,-1.408498,-6.690000,123,126,123
2.003253,-1.370430,-6.690000,124,127,126
2.003253,-1.332363,-6.690000,124,127,126
2.003253,-1.294295,-6.690000,123,126,123
1.994269,-1.250594,-6.660000,124,127,124
1.994269,-1.212698,-6.660000,125,128,127
1.994269,-1.174801,-6.660000,124,127,126
1.985286,-1.131783,-6.630000,125,128,125
1.985286,-1.094057,-6.630000,125,128,125
1.985286,-1.056331,-6.630000,126,129,126
1.985286,-1.018605,-6.630000,126,129,126
1.985286,-0.980878,-6.630000,126,129,128
1.985286,-0.943152,-6.630000,129,129,129
1.985286,-0.905426,-6.630000,128,128,126
1.985286,-0.867700,-6.630000,126,129,126
1.985286,-0.829974,-6.630000,128,131,125
1.985286,-0.792248,-6.630000,128,130,127
1.976303,-0.751108,-6.600000,128,130,129
1.976303,-0.713552,-6.600000,126,129,128
1.976303,-0.675997,-6.600000,83,105,109
1.976303,-0.638442,-6.600000,81,101,104
1.976303,-0.600886,-6.600000,93,113,113
1.976303,-0.563331,-6.600000,76,104,111
1.976303,-0.525775,-6.600000,75,103,112
1.976303,-0.488220,-6.600000,75,103,114
1.976303,-0.450665,-6.600000,75,101,112
1.985286,-0.414987,-6.630000,75,102,106
1.985286,-0.377261,-6.630000,48,67,77
1.985286,-0.339535,-6.630000,101,110,107
1.985286,-0.301809,-6.630000,128,128,128
1.985286,-0.264083,-6.630000,129,129,129
1.976303,-0.225332,-6.600000,130,130,130
1.976303,-0.187777,-6.600000,129,129,129
1.976303,-0.150222,-6.600000,129,129,129
1.967320,-0.112154,-6.570000,130,131,128
1.967320,-0.074769,-6.570000,129,129,129
1.967320,-0.037385,-6.570000,130,130,130
1.967320,0.000000,-6.570000,130,130,130
1.967320,0.037385,-6.570000,132,132,130
1.967320,0.074769,-6.570000,130,131,128
1.967320,0.112154,-6.570000,132,132,130
1.967320,0.149539,-6.570000,129,129,129
1.967320,0.186923,-6.570000,129,129,131
1.958337,0.223284,-6.540000,129,129,129
1.958337,0.260498,-6.540000,127,127,127
1.958337,0.297712,-6.540000,119,121,123
1.958337,0.334926,-6.540000,117,120,119
1.958337,0.372140,-6.540000,109,109,109
1.958337,0.409354,-6.540000,100,101,98
1.949354,0.444519,-6.510000,88,88,88
1.949354,0.481563,-6.510000,76,76,74
1.685846,0.448502,-5.630000,48,53,51
1.679858,0.478831,-5.610000,22,32,40
1.673869,0.508932,-5.590000,1,10,27
1.664886,0.537839,-5.560000,0,3,22
1.652908,0.565379,-5.520000,0,3,26
1.640930,0.592465,-5.480000,0,2,22
1.631947,0.620233,-5.450000,0,7,26
1.631947,0.651245,-5.450000,0,7,28
1.625958,0.679753,-5.430000,0,10,29
1.619970,0.708033,-5.410000,0,3,25
1.613981,0.736086,-5.390000,0,2,25
1.607992,0.763911,-5.370000,0,4,20
1.602003,0.791508,-5.350000,0,6,29
1.602003,0.821951,-5.350000,0,7,28
1.602003,0.852394,-5.350000,0,8,26
1.596014,0.879536,-5.330000,0,8,27
1.596014,0.909865,-5.330000,0,7,32
1.590026,0.936666,-5.310000,0,10,30
1.590026,0.966881,-5.310000,0,12,33
1.590026,0.997096,-5.310000,0,13,36
1.590026,1.027311,-5.310000,0,11,36
1.584037,1.053542,-5.290000,0,15,37
1.584037,1.083644,-5.290000,0,13,38
1.584037,1.113745,-5.290000,0,10,34
1.584037,1.143846,-5.290000,0,12,37
1.584037,1.173947,-5.290000,0,14,39
1.590026,1.208601,-5.310000,0,9,36
1.590026,1.238816,-5.310000,0,12,35
1.596014,1.273811,-5.330000,0,11,35
1.596014,1.304139,-5.330000,0,14,32
1.602003,1.339476,-5.350000,0,12,33
1.607992,1.375039,-5.370000,0,10,36
