1.221715,-1.622733,-6.630000,123,124,121
1.221715,-1.584096,-6.630000,123,124,121
1.221715,-1.545460,-6.630000,125,125,123
1.221715,-1.506823,-6.630000,125,125,123
1.221715,-1.468187,-6.630000,127,127,125
1.221715,-1.429550,-6.630000,127,128,123
1.221715,-1.390914,-6.630000,127,127,125
1.216187,-1.346158,-6.600000,126,126,124
1.216187,-1.307697,-6.600000,127,127,125
1.216187,-1.269235,-6.600000,127,127,125
1.216187,-1.230773,-6.600000,128,128,126
1.216187,-1.192312,-6.600000,127,127,125
1.210658,-1.148605,-6.570000,128,128,126
1.210658,-1.110319,-6.570000,129,130,125
1.210658,-1.072032,-6.570000,129,130,125
1.210658,-1.033745,-6.570000,129,130,127
1.210658,-0.995458,-6.570000,129,130,127
1.210658,-0.957171,-6.570000,130,131,128
1.210658,-0.918884,-6.570000,129,130,127
1.205130,-0.876576,-6.540000,132,132,132
1.205130,-0.838464,-6.540000,129,129,129
1.205130,-0.800352,-6.540000,130,131,128
1.205130,-0.762240,-6.540000,130,131,128
1.205130,-0.724128,-6.540000,130,131,128
1.205130,-0.686016,-6.540000,130,131,128
1.205130,-0.647904,-6.540000,129,130,127
1.205130,-0.609792,-6.540000,129,130,127
1.210658,-0.574303,-6.570000,128,128,126
1.210658,-0.536016,-6.570000,129,130,127
1.210658,-0.497729,-6.570000,129,130,127
1.210658,-0.459442,-6.570000,128,128,128
1.210658,-0.421155,-6.570000,127,127,127
1.210658,-0.382868,-6.570000,69,67,68
1.210658,-0.344582,-6.570000,27,18,17
1.205130,-0.304896,-6.540000,23,7,6
1.205130,-0.266784,-6.540000,20,5,3
1.205130,-0.228672,-6.540000,23,6,10
1.205130,-0.190560,-6.540000,19,5,7
1.205130,-0.152448,-6.540000,25,10,15
1.205130,-0.114336,-6.540000,51,45,45
1.205130,-0.076224,-6.540000,133,133,129
1.205130,-0.038112,-6.540000,125,125,123
1.205130,0.000000,-6.540000,126,126,126
1.205130,0.038112,-6.540000,126,126,126
1.166433,0.073776,-6.330000,126,126,126
0.877128,0.083217,-4.760000,125,125,123
0.873443,0.110490,-4.740000,114,114,116
0.873443,0.138112,-4.740000,103,101,97
0.873443,0.165735,-4.740000,111,109,105
0.871600,0.192949,-4.730000,128,126,125
0.871600,0.220514,-4.730000,134,132,131
0.867915,0.247029,-4.710000,138,136,132
0.866072,0.273894,-4.700000,140,138,137
0.866072,0.301283,-4.700000,142,141,137
0.866072,0.328672,-4.700000,147,145,143
0.866072,0.356062,-4.700000,151,149,145
0.867915,0.384267,-4.710000,141,141,139
1.017174,0.482519,-5.520000,128,128,126
1.020860,0.516552,-5.540000,105,108,109
1.020860,0.548836,-5.540000,45,50,62
1.017174,0.579023,-5.520000,3,8,20
1.017174,0.611191,-5.520000,4,11,25
1.013489,0.641028,-5.500000,5,12,28
1.013489,0.673079,-5.500000,7,16,31
1.009803,0.702567,-5.480000,6,16,33
1.004275,0.730480,-5.450000,9,20,35
0.996904,0.756646,-5.410000,9,22,36
0.996904,0.788173,-5.410000,8,19,36
0.993219,0.816669,-5.390000,7,17,36
0.993219,0.848080,-5.390000,7,20,39
0.989534,0.876227,-5.370000,7,22,40
0.989534,0.907521,-5.370000,10,23,39
0.985848,0.935318,-5.350000,5,20,38
0.985848,0.966495,-5.350000,5,20,36
0.982163,0.993943,-5.330000,5,18,36
0.982163,1.025004,-5.330000,10,24,35
0.982163,1.056064,-5.330000,8,24,41
0.978477,1.083046,-5.310000,8,24,41
0.978477,1.113990,-5.310000,4,21,43
0.974792,1.140622,-5.290000,8,23,43
0.974792,1.171449,-5.290000,7,22,44
0.974792,1.202277,-5.290000,10,28,45
0.974792,1.233104,-5.290000,14,29,47
0.974792,1.263932,-5.290000,12,30,49
0.974792,1.294760,-5.290000,7,23,38
0.974792,1.325587,-5.290000,2,14,35
0.974792,1.356415,-5.290000,0,11,31
0.974792,1.387243,-5.290000,0,10,34
0.974792,1.418070,-5.290000,0,6,30
0.974792,1.448898,-5.290000,1,11,33
0.974792,1.479725,-5.290000,2,13,32
0.974792,1.510553,-5.290000,0,12,33
0.974792,1.541381,-5.290000,1,11,31
0.974792,1.572208,-5.290000,0,12,33
0.978477,1.609096,-5.310000,0,10,31
0.978477,1.640041,-5.310000,0,12,33
0.978477,1.670985,-5.310000,0,12,31
1.259893,-1.854552,-6.630000,119,119,117
1.259893,-1.815915,-6.630000,121,123,122
1.259893,-1.777279,-6.630000,118,121,120
1.259893,-1.738642,-6.630000,119,123,117
1.259893,-1.700006,-6.630000,121,123,120
1.259893,-1.661369,-6.630000,122,123,120
1.259893,-1.622733,-6.630000,125,125,123
1.259893,-1.584096,-6.630000,125,125,123
1.259893,-1.545460,-6.630000,125,125,123
1.259893,-1.506823,-6.630000,125,125,125
1.259893,-1.468187,-6.630000,125,125,121
1.259893,-1.429550,-6.630000,126,127,122
1.259893,-1.390914,-6.630000,127,127,125
1.254192,-1.346158,-6.600000,127,127,125
1.254192,-1.307697,-6.600000,127,127,127
1.254192,-1.269235,-6.600000,128,128,126
1.254192,-1.230773,-6.600000,128,128,126
1.248491,-1.186892,-6.570000,128,128,126
1.248491,-1.148605,-6.570000,129,130,127
1.248491,-1.110319,-6.570000,129,130,125
1.248491,-1.072032,-6.570000,128,129,124
1.248491,-1.033745,-6.570000,128,128,126
1.248491,-0.995458,-6.570000,129,130,127
1.248491,-0.957171,-6.570000,130,131,128
1.248491,-0.918884,-6.570000,129,130,127
1.242791,-0.876576,-6.540000,129,129,129
1.242791,-0.838464,-6.540000,129,129,129
1.242791,-0.800352,-6.540000,129,130,125
1.242791,-0.762240,-6.540000,130,131,128
1.242791,-0.724128,-6.540000,130,131,128
1.242791,-0.686016,-6.540000,129,130,127
1.242791,-0.647904,-6.540000,129,130,127
1.242791,-0.609792,-6.540000,129,130,127
1.248491,-0.574303,-6.570000,129,130,127
1.248491,-0.536016,-6.570000,128,128,126
1.248491,-0.497729,-6.570000,128,128,126
1.248491,-0.459442,-6.570000,126,126,126
1.248491,-0.421155,-6.570000,126,126,126
1.248491,-0.382868,-6.570000,127,127,127
1.248491,-0.344582,-6.570000,132,132,132
1.248491,-0.306295,-6.570000,79,75,70
1.248491,-0.268008,-6.570000,33,32,35
1.248491,-0.229721,-6.570000,33,31,29
1.242791,-0.190560,-6.540000,63,62,58
1.242791,-0.152448,-6.540000,135,135,133
1.242791,-0.114336,-6.540000,126,126,126
1.242791,-0.076224,-6.540000,127,128,123
1.242791,-0.038112,-6.540000,126,126,124
1.242791,0.000000,-6.540000,126,126,124
1.242791,0.038112,-6.540000,127,127,127
1.242791,0.076224,-6.540000,127,127,127
1.237090,0.113812,-6.510000,126,126,126
1.231389,0.151049,-6.480000,121,121,121
0.904539,0.138695,-4.760000,111,111,109
0.904539,0.166434,-4.760000,109,107,105
0.904539,0.194173,-4.760000,113,111,110
0.900738,0.220980,-4.740000,120,118,119
0.898838,0.248078,-4.730000,127,126,122
0.895037,0.274476,-4.710000,131,129,127
0.893137,0.301283,-4.700000,134,133,129
0.895037,0.329372,-4.710000,139,137,135
1.048961,0.418183,-5.520000,138,136,134
1.062263,0.456062,-5.590000,130,131,128
1.062263,0.488638,-5.590000,112,112,110
1.056562,0.518417,-5.560000,79,81,82
1.056562,0.550818,-5.560000,8,18,28
1.052761,0.581121,-5.540000,3,8,20
1.048961,0.611191,-5.520000,2,8,24
1.045160,0.641028,-5.500000,4,12,30
1.041360,0.670632,-5.480000,9,21,33
1.035659,0.698720,-5.450000,10,21,38
1.031858,0.727800,-5.430000,9,20,35
1.028058,0.756646,-5.410000,5,19,32
1.024257,0.785259,-5.390000,3,16,32
1.024257,0.816669,-5.390000,4,15,34
1.024257,0.848080,-5.390000,4,19,36
1.020457,0.876227,-5.370000,5,23,40
1.016656,0.904141,-5.350000,6,20,36
1.016656,0.935318,-5.350000,4,19,36
1.012855,0.962882,-5.330000,5,20,36
1.012855,0.993943,-5.330000,4,19,34
1.012855,1.025004,-5.330000,6,22,37
1.012855,1.056064,-5.330000,4,19,36
1.009055,1.083046,-5.310000,6,22,37
1.009055,1.113990,-5.310000,6,21,41
1.005254,1.140622,-5.290000,4,17,37
1.005254,1.171449,-5.290000,4,19,38
1.005254,1.202277,-5.290000,10,28,43
1.005254,1.233104,-5.290000,12,27,47
1.005254,1.263932,-5.290000,11,25,45
1.005254,1.294760,-5.290000,5,20,36
1.005254,1.325587,-5.290000,0,12,33
1.005254,1.356415,-5.290000,0,10,30
1.005254,1.387243,-5.290000,0,10,34
1.005254,1.418070,-5.290000,0,8,32
1.005254,1.448898,-5.290000,0,9,30
1.005254,1.479725,-5.290000,1,11,33
1.005254,1.510553,-5.290000,0,13,36
1.005254,1.541381,-5.290000,2,12,34
1.005254,1.572208,-5.290000,0,12,33
1.005254,1.603036,-5.290000,0,6,28
1.009055,1.640041,-5.310000,0,12,33
1.009055,1.670985,-5.310000,0,11,31
1.298072,-1.854552,-6.630000,120,120,120
1.298072,-1.815915,-6.630000,118,121,120
1.298072,-1.777279,-6.630000,119,122,119
1.298072,-1.738642,-6.630000,121,124,118
1.298072,-1.700006,-6.630000,122,125,121
1.298072,-1.661369,-6.630000,121,123,120
1.298072,-1.622733,-6.630000,123,124,121
1.298072,-1.584096,-6.630000,125,125,123
1.298072,-1.545460,-6.630000,126,126,124
1.298072,-1.506823,-6.630000,126,126,126
1.298072,-1.468187,-6.630000,126,127,122
1.298072,-1.429550,-6.630000,127,127,125
1.298072,-1.390914,-6.630000,127,127,125
1.292198,-1.346158,-6.600000,127,127,125
1.292198,-1.307697,-6.600000,126,126,126
1.292198,-1.269235,-6.600000,127,127,125
1.292198,-1.230773,-6.600000,128,128,126
1.286325,-1.186892,-6.570000,128,129,124
1.286325,-1.148605,-6.570000,128,128,126
1.286325,-1.110319,-6.570000,127,128,123
1.286325,-1.072032,-6.570000,128,128,126
1.286325,-1.033745,-6.570000,130,131,128
1.286325,-0.995458,-6.570000,130,131,128
1.286325,-0.957171,-6.570000,129,130,127
1.286325,-0.918884,-6.570000,129,130,127
1.286325,-0.880597,-6.570000,130,130,130
1.280451,-0.838464,-6.540000,130,131,128
1.280451,-0.800352,-6.540000,129,130,125
1.280451,-0.762240,-6.540000,130,131,128
1.280451,-0.724128,-6.540000,129,130,127
1.280451,-0.686016,-6.540000,129,130,127
1.280451,-0.647904,-6.540000,129,130,127
1.280451,-0.609792,-6.540000,129,130,127
1.286325,-0.574303,-6.570000,129,130,127
1.286325,-0.536016,-6.570000,129,130,127
1.286325,-0.497729,-6.570000,129,130,127
1.286325,-0.459442,-6.570000,129,129,129
1.286325,-0.421155,-6.570000,128,128,128
1.286325,-0.382868,-6.570000,128,128,128
1.286325,-0.344582,-6.570000,128,128,128
1.286325,-0.306295,-6.570000,128,128,126
1.286325,-0.268008,-6.570000,128,128,126
1.286325,-0.229721,-6.570000,128,128,128
1.286325,-0.191434,-6.570000,127,127,125
1.286325,-0.153147,-6.570000,127,127,125
1.286325,-0.114861,-6.570000,126,126,126
1.280451,-0.076224,-6.540000,127,127,125
1.280451,-0.038112,-6.540000,127,127,125
1.280451,0.000000,-6.540000,127,127,125
1.280451,0.038112,-6.540000,127,127,127
1.280451,0.076224,-6.540000,127,127,127
1.280451,0.114336,-6.540000,126,126,126
1.274577,0.151749,-6.510000,120,120,120
1.274577,0.189686,-6.510000,109,109,109
1.262830,0.225525,-6.450000,104,102,100
0.937823,0.195397,-4.790000,111,109,107
0.935865,0.222845,-4.780000,116,113,114
0.931949,0.249651,-4.760000,115,112,113
0.928033,0.276225,-4.740000,113,111,110
0.928033,0.303847,-4.740000,113,111,110
1.098368,0.392309,-5.610000,125,123,123
1.098368,0.425001,-5.610000,126,124,125
1.098368,0.457694,-5.610000,109,109,111
1.094453,0.488638,-5.590000,82,80,78
1.094453,0.521214,-5.590000,34,36,40
1.088579,0.550818,-5.560000,9,16,27
1.088579,0.583219,-5.560000,2,8,24
1.080748,0.611191,-5.520000,1,7,25
1.076832,0.641028,-5.500000,1,12,29
1.072916,0.670632,-5.480000,7,18,32
1.067042,0.698720,-5.450000,7,21,37
1.059211,0.725119,-5.410000,7,21,35
1.059211,0.756646,-5.410000,5,19,32
1.055295,0.785259,-5.390000,6,17,31
1.055295,0.816669,-5.390000,2,13,32
1.051379,0.844933,-5.370000,2,17,37
1.047464,0.872963,-5.350000,5,20,38
1.047464,0.904141,-5.350000,5,18,34
1.047464,0.935318,-5.350000,6,22,37
1.043548,0.962882,-5.330000,6,22,37
1.043548,0.993943,-5.330000,5,20,38
1.043548,1.025004,-5.330000,4,19,34
1.043548,1.056064,-5.330000,5,18,36
1.039632,1.083046,-5.310000,5,20,38
1.039632,1.113990,-5.310000,4,19,38
1.035716,1.140622,-5.290000,5,18,38
1.035716,1.171449,-5.290000,6,21,41
1.035716,1.202277,-5.290000,9,27,43
1.035716,1.233104,-5.290000,9,26,45
1.031801,1.259154,-5.270000,12,27,47
1.031801,1.289865,-5.270000,9,25,40
1.035716,1.325587,-5.290000,0,11,29
1.035716,1.356415,-5.290000,0,13,32
1.035716,1.387243,-5.290000,0,10,34
1.035716,1.418070,-5.290000,0,13,36
1.035716,1.448898,-5.290000,1,11,33
1.035716,1.479725,-5.290000,0,9,30
1.035716,1.510553,-5.290000,0,12,35
1.035716,1.541381,-5.290000,0,12,33
1.035716,1.572208,-5.290000,0,12,33
1.035716,1.603036,-5.290000,0,8,29
1.039632,1.640041,-5.310000,0,11,34
1.039632,1.670985,-5.310000,0,12,33
1.336250,-1.854552,-6.630000,121,121,121
1.336250,-1.815915,-6.630000,118,121,120
1.336250,-1.777279,-6.630000,119,122,119
1.336250,-1.738642,-6.630000,121,123,120
1.336250,-1.700006,-6.630000,121,123,120
1.336250,-1.661369,-6.630000,121,123,120
1.336250,-1.622733,-6.630000,122,125,121
1.336250,-1.584096,-6.630000,122,123,120
1.336250,-1.545460,-6.630000,123,124,119
1.336250,-1.506823,-6.630000,123,124,121
1.336250,-1.468187,-6.630000,126,126,124
1.336250,-1.429550,-6.630000,126,126,124
1.336250,-1.390914,-6.630000,126,126,124
1.330204,-1.346158,-6.600000,127,127,125
1.330204,-1.307697,-6.600000,127,127,127
1.330204,-1.269235,-6.600000,127,127,125
1.330204,-1.230773,-6.600000,128,128,128
1.324158,-1.186892,-6.570000,127,128,123
1.324158,-1.148605,-6.570000,128,128,126
1.324158,-1.110319,-6.570000,128,129,124
1.324158,-1.072032,-6.570000,129,130,127
1.324158,-1.033745,-6.570000,129,130,127
1.324158,-0.995458,-6.570000,130,131,128
1.324158,-0.957171,-6.570000,130,131,128
1.324158,-0.918884,-6.570000,129,130,127
1.324158,-0.880597,-6.570000,129,129,129
1.324158,-0.842311,-6.570000,130,131,126
1.318111,-0.800352,-6.540000,130,131,128
1.318111,-0.762240,-6.540000,129,130,127
1.318111,-0.724128,-6.540000,129,130,127
1.318111,-0.686016,-6.540000,129,130,127
1.318111,-0.647904,-6.540000,129,130,127
1.318111,-0.609792,-6.540000,129,130,127
1.324158,-0.574303,-6.570000,129,130,127
1.324158,-0.536016,-6.570000,130,131,128
1.324158,-0.497729,-6.570000,129,130,127
1.324158,-0.459442,-6.570000,130,131,128
1.324158,-0.421155,-6.570000,129,130,127
1.324158,-0.382868,-6.570000,129,129,129
1.324158,-0.344582,-6.570000,128,128,128
1.324158,-0.306295,-6.570000,129,129,129
1.324158,-0.268008,-6.570000,129,130,127
1.324158,-0.229721,-6.570000,128,128,128
1.324158,-0.191434,-6.570000,128,128,126
1.324158,-0.153147,-6.570000,128,128,126
1.324158,-0.114861,-6.570000,127,127,127
1.324158,-0.076574,-6.570000,127,127,127
1.318111,-0.038112,-6.540000,128,128,126
1.318111,0.000000,-6.540000,127,127,125
1.318111,0.038112,-6.540000,128,128,128
1.318111,0.076224,-6.540000,127,127,127
1.318111,0.114336,-6.540000,125,125,125
1.318111,0.152448,-6.540000,120,120,120
1.312065,0.189686,-6.510000,109,109,109
1.312065,0.227623,-6.510000,104,102,100
1.299972,0.263113,-6.450000,95,93,89
1.299972,0.300700,-6.450000,89,87,83
1.299972,0.338288,-6.450000,83,81,79
1.299972,0.375875,-6.450000,75,73,69
1.299972,0.413463,-6.450000,110,108,106
1.154859,0.400701,-5.730000,115,112,115
1.130673,0.425001,-5.610000,109,106,107
1.130673,0.457694,-5.610000,61,64,63
1.126642,0.488638,-5.590000,52,48,45
1.126642,0.521214,-5.590000,22,26,32
1.120596,0.550818,-5.560000,9,16,29
1.116565,0.581121,-5.540000,2,8,26
1.112534,0.611191,-5.520000,2,8,26
1.108503,0.641028,-5.500000,3,14,31
1.104472,0.670632,-5.480000,6,20,32
1.098426,0.698720,-5.450000,2,18,33
1.090364,0.725119,-5.410000,6,22,35
1.086333,0.753849,-5.390000,8,24,37
1.086333,0.785259,-5.390000,9,20,35
1.082302,0.813639,-5.370000,6,16,33
1.078271,0.841786,-5.350000,2,15,33
1.078271,0.872963,-5.350000,1,17,34
1.078271,0.904141,-5.350000,6,22,37
1.074241,0.931821,-5.330000,6,20,36
1.074241,0.962882,-5.330000,4,19,36
1.074241,0.993943,-5.330000,6,21,39
1.074241,1.025004,-5.330000,4,17,35
1.070210,1.052102,-5.310000,3,16,34
1.070210,1.083046,-5.310000,3,15,36
1.070210,1.113990,-5.310000,4,17,37
1.066179,1.140622,-5.290000,7,20,41
1.066179,1.171449,-5.290000,6,20,43
1.066179,1.202277,-5.290000,7,22,42
1.066179,1.233104,-5.290000,8,25,44
1.062148,1.259154,-5.270000,8,23,43
1.062148,1.289865,-5.270000,8,24,39
1.062148,1.320576,-5.270000,4,19,38
1.062148,1.351287,-5.270000,2,15,33
1.066179,1.387243,-5.290000,0,14,39
1.066179,1.418070,-5.290000,0,13,36
1.066179,1.448898,-5.290000,0,10,34
1.066179,1.479725,-5.290000,0,9,28
1.066179,1.510553,-5.290000,0,12,35
1.066179,1.541381,-5.290000,0,11,31
1.066179,1.572208,-5.290000,0,12,33
1.066179,1.603036,-5.290000,0,9,32
1.070210,1.640041,-5.310000,0,9,32
1.070210,1.670985,-5.310000,0,10,30
1.374429,-1.854552,-6.630000,119,122,121
1.374429,-1.815915,-6.630000,118,121,120
1.374429,-1.777279,-6.630000,121,123,122
1.374429,-1.738642,-6.630000,121,123,120
1.374429,-1.700006,-6.630000,122,125,121
1.374429,-1.661369,-6.630000,122,124,123
1.374429,-1.622733,-6.630000,119,122,121
1.374429,-1.584096,-6.630000,122,123,120
1.374429,-1.545460,-6.630000,123,124,121
1.374429,-1.506823,-6.630000,125,125,121
1.374429,-1.468187,-6.630000,125,125,123
1.374429,-1.429550,-6.630000,126,126,124
1.374429,-1.390914,-6.630000,125,125,123
1.368210,-1.346158,-6.600000,126,126,126
1.368210,-1.307697,-6.600000,126,126,126
1.368210,-1.269235,-6.600000,127,127,125
1.368210,-1.230773,-6.600000,127,127,127
1.361991,-1.186892,-6.570000,128,128,126
1.361991,-1.148605,-6.570000,128,128,126
1.361991,-1.110319,-6.570000,129,130,125
1.361991,-1.072032,-6.570000,129,130,127
1.361991,-1.033745,-6.570000,129,130,127
1.361991,-0.995458,-6.570000,129,130,127
1.361991,-0.957171,-6.570000,129,130,127
1.361991,-0.918884,-6.570000,130,131,128
1.361991,-0.880597,-6.570000,129,130,127
1.361991,-0.842311,-6.570000,129,130,125
1.361991,-0.804024,-6.570000,130,131,126
1.355772,-0.762240,-6.540000,130,131,128
1.355772,-0.724128,-6.540000,130,130,130
1.355772,-0.686016,-6.540000,130,131,128
1.355772,-0.647904,-6.540000,132,132,130
1.355772,-0.609792,-6.540000,130,131,128
1.361991,-0.574303,-6.570000,130,131,128
1.361991,-0.536016,-6.570000,128,128,128
1.361991,-0.497729,-6.570000,129,130,127
1.361991,-0.459442,-6.570000,129,130,127
1.361991,-0.421155,-6.570000,129,130,127
1.361991,-0.382868,-6.570000,129,129,129
1.361991,-0.344582,-6.570000,128,128,128
1.361991,-0.306295,-6.570000,129,129,129
1.361991,-0.268008,-6.570000,128,128,126
1.361991,-0.229721,-6.570000,128,128,126
1.361991,-0.191434,-6.570000,128,128,126
1.361991,-0.153147,-6.570000,128,128,126
1.361991,-0.114861,-6.570000,127,127,125
1.361991,-0.076574,-6.570000,128,128,128
1.361991,-0.038287,-6.570000,128,128,126
1.355772,0.000000,-6.540000,128,128,126
1.355772,0.038112,-6.540000,128,128,128
1.355772,0.076224,-6.540000,127,127,127
1.355772,0.114336,-6.540000,126,126,126
1.355772,0.152448,-6.540000,122,122,122
1.349552,0.189686,-6.510000,113,113,113
1.349552,0.227623,-6.510000,104,102,100
1.349552,0.265560,-6.510000,95,96,93
1.343333,0.302099,-6.480000,89,87,83
1.337114,0.338288,-6.450000,82,80,78
1.337114,0.375875,-6.450000,76,74,72
1.337114,0.413463,-6.450000,73,71,69
1.337114,0.451051,-6.450000,68,66,64
1.187855,0.434092,-5.730000,61,59,55
1.167124,0.459326,-5.630000,56,55,51
1.158832,0.488638,-5.590000,52,48,45
1.158832,0.521214,-5.590000,20,25,33
1.152613,0.550818,-5.560000,4,13,28
1.148467,0.581121,-5.540000,1,6,27
1.144321,0.611191,-5.520000,4,10,29
1.136029,0.638697,-5.480000,7,18,34
1.129810,0.666960,-5.450000,7,21,35
1.125664,0.696156,-5.430000,7,23,38
1.121517,0.725119,-5.410000,11,27,39
1.117371,0.753849,-5.390000,9,25,38
1.117371,0.785259,-5.390000,11,25,38
1.113225,0.813639,-5.370000,5,18,34
1.109079,0.841786,-5.350000,3,16,32
1.104933,0.869700,-5.330000,1,16,36
1.104933,0.900761,-5.330000,0,14,32
1.104933,0.931821,-5.330000,2,15,31
1.104933,0.962882,-5.330000,2,18,35
1.104933,0.993943,-5.330000,1,16,36
1.104933,1.025004,-5.330000,2,15,33
1.100787,1.052102,-5.310000,3,16,34
1.100787,1.083046,-5.310000,2,14,37
1.096641,1.109794,-5.290000,4,18,40
1.096641,1.140622,-5.290000,5,18,38
1.096641,1.171449,-5.290000,7,22,44
1.092495,1.197731,-5.270000,7,22,40
1.092495,1.228442,-5.270000,5,19,42
1.092495,1.259154,-5.270000,4,18,40
1.092495,1.289865,-5.270000,7,21,37
1.092495,1.320576,-5.270000,2,17,37
1.092495,1.351287,-5.270000,0,13,32
1.092495,1.381998,-5.270000,0,13,38
1.096641,1.418070,-5.290000,0,13,36
1.096641,1.448898,-5.290000,0,9,32
1.096641,1.479725,-5.290000,0,9,28
1.096641,1.510553,-5.290000,0,13,38
1.096641,1.541381,-5.290000,0,13,34
1.096641,1.572208,-5.290000,0,13,33
1.096641,1.603036,-5.290000,2,14,35
1.100787,1.640041,-5.310000,0,13,36
1.100787,1.670985,-5.310000,0,11,31
1.412608,-1.854552,-6.630000,118,121,120
1.412608,-1.815915,-6.630000,118,121,120
1.412608,-1.777279,-6.630000,119,122,121
1.412608,-1.738642,-6.630000,122,125,121
1.412608,-1.700006,-6.630000,119,122,119
1.412608,-1.661369,-6.630000,119,122,121
1.412608,-1.622733,-6.630000,122,124,123
1.412608,-1.584096,-6.630000,123,124,121
1.412608,-1.545460,-6.630000,125,125,123
1.412608,-1.506823,-6.630000,125,125,121
1.412608,-1.468187,-6.630000,126,126,124
1.412608,-1.429550,-6.630000,126,126,124
1.412608,-1.390914,-6.630000,127,127,127
1.406216,-1.346158,-6.600000,126,126,126
1.406216,-1.307697,-6.600000,127,127,127
1.406216,-1.269235,-6.600000,127,127,125
1.406216,-1.230773,-6.600000,128,128,128
1.399824,-1.186892,-6.570000,129,130,127
1.399824,-1.148605,-6.570000,128,128,126
1.399824,-1.110319,-6.570000,129,130,125
1.399824,-1.072032,-6.570000,129,130,127
1.399824,-1.033745,-6.570000,130,131,128
1.399824,-0.995458,-6.570000,132,132,130
1.399824,-0.957171,-6.570000,129,130,127
1.399824,-0.918884,-6.570000,129,130,127
1.399824,-0.880597,-6.570000,129,130,127
1.399824,-0.842311,-6.570000,130,131,128
1.399824,-0.804024,-6.570000,129,130,127
1.399824,-0.765737,-6.570000,129,130,127
1.393432,-0.724128,-6.540000,130,131,128
1.393432,-0.686016,-6.540000,129,130,127
1.393432,-0.647904,-6.540000,130,131,128
1.393432,-0.609792,-6.540000,129,130,127
1.399824,-0.574303,-6.570000,130,131,128
1.399824,-0.536016,-6.570000,129,129,129
1.399824,-0.497729,-6.570000,128,128,128
1.399824,-0.459442,-6.570000,129,130,127
1.399824,-0.421155,-6.570000,127,127,125
1.399824,-0.382868,-6.570000,128,128,128
1.399824,-0.344582,-6.570000,128,128,128
1.399824,-0.306295,-6.570000,128,128,128
1.399824,-0.268008,-6.570000,128,128,126
1.399824,-0.229721,-6.570000,128,128,126
1.399824,-0.191434,-6.570000,129,130,127
1.399824,-0.153147,-6.570000,128,128,128
1.399824,-0.114861,-6.570000,129,130,127
1.399824,-0.076574,-6.570000,128,128,126
1.399824,-0.038287,-6.570000,128,128,128
1.393432,0.000000,-6.540000,128,128,126
1.393432,0.038112,-6.540000,128,128,128
1.393432,0.076224,-6.540000,128,128,126
1.393432,0.114336,-6.540000,127,127,127
1.393432,0.152448,-6.540000,122,122,122
1.387040,0.189686,-6.510000,113,113,111
1.387040,0.227623,-6.510000,105,103,102
1.387040,0.265560,-6.510000,94,95,92
1.380648,0.302099,-6.480000,89,87,83
1.380648,0.339861,-6.480000,82,80,78
1.374256,0.375875,-6.450000,78,73,72
1.374256,0.413463,-6.450000,71,69,68
1.374256,0.451051,-6.450000,64,62,61
1.367864,0.486365,-6.420000,61,59,55
1.199545,0.459326,-5.630000,56,54,53
1.191022,0.488638,-5.590000,49,48,44
1.191022,0.521214,-5.590000,17,25,33
1.184630,0.550818,-5.560000,0,9,24
1.180369,0.581121,-5.540000,0,4,23
1.171846,0.608976,-5.500000,2,11,31
1.167585,0.638697,-5.480000,8,18,38
1.161193,0.666960,-5.450000,9,22,38
1.156932,0.696156,-5.430000,9,25,40
1.152671,0.725119,-5.410000,12,26,39
1.148409,0.753849,-5.390000,9,25,38
1.144148,0.782345,-5.370000,9,22,38
1.139887,0.810609,-5.350000,5,18,34
1.139887,0.841786,-5.350000,6,22,37
1.135626,0.869700,-5.330000,2,18,35
1.135626,0.900761,-5.330000,1,16,36
1.135626,0.931821,-5.330000,0,12,31
1.135626,0.962882,-5.330000,0,15,35
1.135626,0.993943,-5.330000,0,13,33
1.131364,1.021157,-5.310000,0,12,31
1.131364,1.052102,-5.310000,0,14,34
1.131364,1.083046,-5.310000,3,15,38
1.127103,1.109794,-5.290000,5,19,42
1.127103,1.140622,-5.290000,5,17,40
1.122842,1.167020,-5.270000,7,22,44
1.122842,1.197731,-5.270000,7,22,40
1.122842,1.228442,-5.270000,4,18,40
1.122842,1.259154,-5.270000,0,11,35
1.122842,1.289865,-5.270000,0,13,29
1.122842,1.320576,-5.270000,0,12,35
1.122842,1.351287,-5.270000,0,12,33
1.122842,1.381998,-5.270000,0,13,36
1.127103,1.418070,-5.290000,0,12,35
1.127103,1.448898,-5.290000,0,12,35
1.127103,1.479725,-5.290000,0,12,31
1.127103,1.510553,-5.290000,1,15,40
1.127103,1.541381,-5.290000,3,15,38
1.127103,1.572208,-5.290000,0,12,33
1.131364,1.609096,-5.310000,0,12,31
1.135626,1.646218,-5.330000,0,13,36
1.135626,1.677278,-5.330000,0,12,33
1.450786,-1.854552,-6.630000,118,121,120
1.450786,-1.815915,-6.630000,119,122,121
1.450786,-1.777279,-6.630000,118,121,118
1.457351,-1.746510,-6.660000,121,123,120
1.457351,-1.707698,-6.660000,121,123,120
1.450786,-1.661369,-6.630000,121,123,122
1.450786,-1.622733,-6.630000,123,125,125
1.450786,-1.584096,-6.630000,123,126,123
1.450786,-1.545460,-6.630000,123,126,123
1.450786,-1.506823,-6.630000,125,125,121
1.450786,-1.468187,-6.630000,126,126,124
1.450786,-1.429550,-6.630000,126,126,124
1.450786,-1.390914,-6.630000,126,126,126
1.450786,-1.352277,-6.630000,127,127,127
1.444221,-1.307697,-6.600000,126,126,126
1.444221,-1.269235,-6.600000,126,126,126
1.444221,-1.230773,-6.600000,128,128,128
1.437657,-1.186892,-6.570000,129,130,127
1.437657,-1.148605,-6.570000,129,130,127
1.437657,-1.110319,-6.570000,128,128,126
1.437657,-1.072032,-6.570000,128,128,126
1.437657,-1.033745,-6.570000,130,131,128
1.437657,-0.995458,-6.570000,130,131,128
1.437657,-0.957171,-6.570000,129,130,127
1.437657,-0.918884,-6.570000,128,128,126
1.437657,-0.880597,-6.570000,129,130,127
1.437657,-0.842311,-6.570000,128,128,128
1.437657,-0.804024,-6.570000,129,130,127
1.437657,-0.765737,-6.570000,129,130,127
1.437657,-0.727450,-6.570000,129,130,127
1.437657,-0.689163,-6.570000,130,131,128
1.431092,-0.647904,-6.540000,130,131,128
1.437657,-0.612590,-6.570000,130,131,128
1.437657,-0.574303,-6.570000,130,131,128
1.437657,-0.536016,-6.570000,130,130,130
1.437657,-0.497729,-6.570000,130,130,130
1.437657,-0.459442,-6.570000,130,131,128
1.437657,-0.421155,-6.570000,130,131,128
1.437657,-0.382868,-6.570000,130,130,130
1.437657,-0.344582,-6.570000,129,129,129
1.437657,-0.306295,-6.570000,129,130,127
1.437657,-0.268008,-6.570000,129,130,127
1.437657,-0.229721,-6.570000,129,130,127
1.437657,-0.191434,-6.570000,129,129,129
1.437657,-0.153147,-6.570000,130,130,130
1.437657,-0.114861,-6.570000,129,130,125
1.437657,-0.076574,-6.570000,130,131,128
1.437657,-0.038287,-6.570000,129,130,127
1.437657,0.000000,-6.570000,129,130,127
1.431092,0.038112,-6.540000,128,128,126
1.431092,0.076224,-6.540000,129,129,129
1.431092,0.114336,-6.540000,128,128,128
1.431092,0.152448,-6.540000,123,124,121
1.424528,0.189686,-6.510000,114,114,112
1.424528,0.227623,-6.510000,102,103,100
1.424528,0.265560,-6.510000,95,96,93
1.417963,0.302099,-6.480000,86,87,82
1.417963,0.339861,-6.480000,82,80,78
1.417963,0.377624,-6.480000,75,73,71
1.417963,0.415386,-6.480000,70,68,69
1.411398,0.451051,-6.450000,66,63,64
1.411398,0.488638,-6.450000,60,58,54
1.238529,0.461773,-5.660000,55,53,52
1.231965,0.492135,-5.630000,48,46,45
1.223212,0.521214,-5.590000,16,23,34
1.216647,0.550818,-5.560000,1,10,25
1.212271,0.581121,-5.540000,0,6,24
1.203518,0.608976,-5.500000,1,11,31
1.199141,0.638697,-5.480000,7,17,36
1.192577,0.666960,-5.450000,7,21,37
1.188200,0.696156,-5.430000,9,25,40
1.183824,0.725119,-5.410000,9,25,38
1.179448,0.753849,-5.390000,8,24,37
1.175071,0.782345,-5.370000,5,18,36
1.170695,0.810609,-5.350000,5,20,36
1.170695,0.841786,-5.350000,1,19,33
1.166318,0.869700,-5.330000,4,19,36
1.166318,0.900761,-5.330000,0,15,35
1.166318,0.931821,-5.330000,0,10,31
1.161942,0.959269,-5.310000,0,13,36
1.161942,0.990213,-5.310000,0,12,31
1.161942,1.021157,-5.310000,0,11,29
1.157565,1.048139,-5.290000,0,11,34
1.157565,1.078966,-5.290000,0,14,34
1.157565,1.109794,-5.290000,0,15,39
1.153189,1.136309,-5.270000,0,13,36
1.153189,1.167020,-5.270000,6,19,38
1.153189,1.197731,-5.270000,5,20,40
1.153189,1.228442,-5.270000,2,14,37
1.153189,1.259154,-5.270000,2,14,37
1.148813,1.284969,-5.250000,0,12,33
1.148813,1.315564,-5.250000,0,15,37
1.148813,1.346158,-5.250000,1,16,36
1.153189,1.381998,-5.270000,0,11,35
1.153189,1.412709,-5.270000,0,15,37
1.157565,1.448898,-5.290000,1,16,38
1.157565,1.479725,-5.290000,2,14,35
1.157565,1.510553,-5.290000,1,17,43
1.157565,1.541381,-5.290000,1,16,38
1.161942,1.578152,-5.310000,2,14,37
1.166318,1.615157,-5.330000,3,16,34
1.166318,1.646218,-5.330000,4,17,37
1.170695,1.683572,-5.350000,0,15,35
1.495702,-1.862943,-6.660000,118,121,120
1.488965,-1.815915,-6.630000,118,121,120
1.495702,-1.785321,-6.660000,119,122,121
1.495702,-1.746510,-6.660000,119,122,121
1.495702,-1.707698,-6.660000,121,123,120
1.495702,-1.668887,-6.660000,121,123,122
1.495702,-1.630076,-6.660000,123,126,123
1.488965,-1.584096,-6.630000,123,125,125
1.488965,-1.545460,-6.630000,123,125,125
1.488965,-1.506823,-6.630000,126,127,122
1.488965,-1.468187,-6.630000,125,125,125
1.488965,-1.429550,-6.630000,126,126,124
1.488965,-1.390914,-6.630000,124,127,126
1.488965,-1.352277,-6.630000,126,126,124
1.488965,-1.313641,-6.630000,126,126,126
1.482227,-1.269235,-6.600000,127,127,127
1.482227,-1.230773,-6.600000,126,126,126
1.475490,-1.186892,-6.570000,127,127,125
1.475490,-1.148605,-6.570000,128,128,126
1.475490,-1.110319,-6.570000,129,130,127
1.475490,-1.072032,-6.570000,128,128,126
1.475490,-1.033745,-6.570000,128,128,126
1.475490,-0.995458,-6.570000,129,130,127
1.475490,-0.957171,-6.570000,128,128,126
1.475490,-0.918884,-6.570000,129,130,127
1.475490,-0.880597,-6.570000,130,131,128
1.475490,-0.842311,-6.570000,132,132,132
1.475490,-0.804024,-6.570000,129,130,127
1.475490,-0.765737,-6.570000,132,132,130
1.475490,-0.727450,-6.570000,129,130,127
1.475490,-0.689163,-6.570000,129,130,127
1.475490,-0.650876,-6.570000,130,131,128
1.475490,-0.612590,-6.570000,130,130,130
1.475490,-0.574303,-6.570000,130,131,128
1.475490,-0.536016,-6.570000,130,131,128
1.475490,-0.497729,-6.570000,129,129,129
1.475490,-0.459442,-6.570000,132,132,130
1.475490,-0.421155,-6.570000,129,130,127
1.475490,-0.382868,-6.570000,130,131,128
1.475490,-0.344582,-6.570000,129,129,129
1.475490,-0.306295,-6.570000,130,131,128
1.475490,-0.268008,-6.570000,129,130,127
1.475490,-0.229721,-6.570000,129,130,127
1.475490,-0.191434,-6.570000,129,130,127
1.475490,-0.153147,-6.570000,129,129,129
1.475490,-0.114861,-6.570000,128,128,126
1.475490,-0.076574,-6.570000,129,130,127
1.475490,-0.038287,-6.570000,129,130,127
1.475490,0.000000,-6.570000,130,131,128
1.468753,0.038112,-6.540000,128,128,126
1.468753,0.076224,-6.540000,128,128,128
1.468753,0.114336,-6.540000,127,127,127
1.468753,0.152448,-6.540000,125,125,125
1.462015,0.189686,-6.510000,114,114,112
1.462015,0.227623,-6.510000,105,105,103
1.462015,0.265560,-6.510000,95,96,93
1.455278,0.302099,-6.480000,87,88,83
1.455278,0.339861,-6.480000,83,81,79
1.455278,0.377624,-6.480000,75,73,71
1.455278,0.415386,-6.480000,69,67,68
1.448540,0.451051,-6.450000,66,63,64
1.448540,0.488638,-6.450000,60,58,56
1.271122,0.461773,-5.660000,54,52,48
1.264385,0.492135,-5.630000,47,45,43
1.255402,0.521214,-5.590000,12,20,31
1.244173,0.548836,-5.540000,4,12,30
1.244173,0.581121,-5.540000,4,13,28
1.235189,0.608976,-5.500000,6,16,35
1.230698,0.638697,-5.480000,8,18,38
1.223960,0.666960,-5.450000,9,22,40
1.219469,0.696156,-5.430000,6,22,37
1.210486,0.722438,-5.390000,10,24,35
1.210486,0.753849,-5.390000,4,19,34
1.205994,0.782345,-5.370000,4,17,35
1.201502,0.810609,-5.350000,4,17,33
1.197011,0.838639,-5.330000,1,19,35
1.197011,0.869700,-5.330000,5,20,36
1.192519,0.897381,-5.310000,0,14,34
1.192519,0.928325,-5.310000,0,9,30
1.192519,0.959269,-5.310000,0,10,34
1.192519,0.990213,-5.310000,0,13,36
1.188028,1.017311,-5.290000,2,15,33
1.188028,1.048139,-5.290000,0,10,30
1.183536,1.074887,-5.270000,0,12,31
1.183536,1.105598,-5.270000,0,12,36
1.183536,1.136309,-5.270000,0,13,36
1.183536,1.167020,-5.270000,4,17,35
1.183536,1.197731,-5.270000,0,15,37
1.183536,1.228442,-5.270000,0,13,36
1.179044,1.254375,-5.250000,0,10,34
1.179044,1.284969,-5.250000,0,9,32
1.179044,1.315564,-5.250000,0,10,34
1.179044,1.346158,-5.250000,0,11,35
1.183536,1.381998,-5.270000,0,11,35
1.183536,1.412709,-5.270000,2,14,35
1.183536,1.443420,-5.270000,2,14,35
1.188028,1.479725,-5.290000,3,15,36
1.188028,1.510553,-5.290000,0,16,40
1.192519,1.547208,-5.310000,1,16,36
1.197011,1.584096,-5.330000,0,15,37
1.197011,1.615157,-5.330000,2,15,33
1.201502,1.652395,-5.350000,3,16,34
1.205994,1.689866,-5.370000,0,15,33
1.534053,-1.862943,-6.660000,118,121,120
1.534053,-1.824132,-6.660000,118,121,120
1.534053,-1.785321,-6.660000,119,122,121
1.534053,-1.746510,-6.660000,118,121,118
1.534053,-1.707698,-6.660000,121,123,120
1.534053,-1.668887,-6.660000,122,125,121
1.534053,-1.630076,-6.660000,122,124,123
1.534053,-1.591264,-6.660000,122,124,123
1.527143,-1.545460,-6.630000,122,124,123
1.527143,-1.506823,-6.630000,123,126,123
1.527143,-1.468187,-6.630000,123,125,125
1.527143,-1.429550,-6.630000,124,127,124
1.527143,-1.390914,-6.630000,123,125,125
1.527143,-1.352277,-6.630000,124,127,124
1.527143,-1.313641,-6.630000,128,128,128
1.520233,-1.269235,-6.600000,127,127,127
1.520233,-1.230773,-6.600000,125,125,125
1.520233,-1.192312,-6.600000,126,126,124
1.513323,-1.148605,-6.570000,127,127,127
1.513323,-1.110319,-6.570000,127,127,125
1.513323,-1.072032,-6.570000,129,130,127
1.513323,-1.033745,-6.570000,130,131,126
1.513323,-0.995458,-6.570000,129,130,127
1.513323,-0.957171,-6.570000,130,131,128
1.513323,-0.918884,-6.570000,130,131,128
1.513323,-0.880597,-6.570000,129,130,127
1.513323,-0.842311,-6.570000,129,130,127
1.513323,-0.804024,-6.570000,130,131,128
1.513323,-0.765737,-6.570000,130,131,128
1.513323,-0.727450,-6.570000,130,131,128
1.513323,-0.689163,-6.570000,129,130,127
1.513323,-0.650876,-6.570000,130,131,128
1.513323,-0.612590,-6.570000,130,130,130
1.513323,-0.574303,-6.570000,130,131,128
1.513323,-0.536016,-6.570000,130,131,128
1.513323,-0.497729,-6.570000,129,129,129
1.513323,-0.459442,-6.570000,128,128,126
1.513323,-0.421155,-6.570000,130,131,128
1.513323,-0.382868,-6.570000,129,130,127
1.513323,-0.344582,-6.570000,128,128,128
1.513323,-0.306295,-6.570000,132,132,130
1.513323,-0.268008,-6.570000,129,130,127
1.513323,-0.229721,-6.570000,130,131,128
1.513323,-0.191434,-6.570000,129,130,127
1.513323,-0.153147,-6.570000,128,128,128
1.513323,-0.114861,-6.570000,130,131,128
1.513323,-0.076574,-6.570000,128,128,126
1.513323,-0.038287,-6.570000,129,130,127
1.513323,0.000000,-6.570000,130,131,126
1.506413,0.038112,-6.540000,129,130,127
1.506413,0.076224,-6.540000,127,127,127
1.506413,0.114336,-6.540000,127,127,125
1.499503,0.151749,-6.510000,126,126,126
1.499503,0.189686,-6.510000,116,116,116
1.499503,0.227623,-6.510000,108,109,104
1.499503,0.265560,-6.510000,99,99,97
1.499503,0.303498,-6.510000,91,92,87
1.492593,0.339861,-6.480000,83,81,79
1.492593,0.377624,-6.480000,77,75,74
1.492593,0.415386,-6.480000,73,71,69
1.485682,0.451051,-6.450000,67,64,65
1.485682,0.488638,-6.450000,61,57,56
1.296805,0.459326,-5.630000,55,54,50
1.296805,0.492135,-5.630000,34,33,36
1.287591,0.521214,-5.590000,12,22,32
1.276074,0.548836,-5.540000,2,11,29
1.276074,0.581121,-5.540000,6,17,31
1.266861,0.608976,-5.500000,7,17,36
1.262254,0.638697,-5.480000,9,20,37
1.250737,0.664513,-5.430000,4,17,35
1.246131,0.693592,-5.410000,5,18,36
1.241524,0.722438,-5.390000,10,24,37
1.241524,0.753849,-5.390000,6,22,37
1.236917,0.782345,-5.370000,9,22,38
1.232310,0.810609,-5.350000,4,17,33
1.227703,0.838639,-5.330000,2,18,35
1.223097,0.866437,-5.310000,1,19,33
1.223097,0.897381,-5.310000,0,13,33
1.223097,0.928325,-5.310000,0,10,30
1.218490,0.955656,-5.290000,0,7,32
1.218490,0.986484,-5.290000,1,16,36
1.213883,1.013465,-5.270000,2,15,33
1.213883,1.044176,-5.270000,0,11,31
1.213883,1.074887,-5.270000,0,11,28
1.213883,1.105598,-5.270000,0,12,36
1.213883,1.136309,-5.270000,0,11,37
1.209276,1.162591,-5.250000,0,13,34
1.209276,1.193186,-5.250000,4,16,41
1.209276,1.223780,-5.250000,0,11,35
1.209276,1.254375,-5.250000,0,13,34
1.209276,1.284969,-5.250000,0,9,32
1.209276,1.315564,-5.250000,0,10,36
1.209276,1.346158,-5.250000,0,8,31
1.213883,1.381998,-5.270000,0,10,32
1.213883,1.412709,-5.270000,2,14,37
1.218490,1.448898,-5.290000,4,17,35
1.218490,1.479725,-5.290000,4,16,39
1.218490,1.510553,-5.290000,0,16,40
1.227703,1.553036,-5.330000,2,17,37
1.227703,1.584096,-5.330000,4,19,38
1.232310,1.621218,-5.350000,4,15,34
1.236917,1.658572,-5.370000,5,18,38
1.236917,1.689866,-5.370000,3,20,40
1.572405,-1.862943,-6.660000,117,120,119
1.572405,-1.824132,-6.660000,118,121,120
1.572405,-1.785321,-6.660000,119,122,121
1.572405,-1.746510,-6.660000,119,122,119
1.572405,-1.707698,-6.660000,121,123,120
1.572405,-1.668887,-6.660000,123,125,125
1.572405,-1.630076,-6.660000,121,123,122
1.572405,-1.591264,-6.660000,122,124,123
1.572405,-1.552453,-6.660000,122,124,123
1.572405,-1.513642,-6.660000,123,125,125
1.572405,-1.474830,-6.660000,124,127,126
1.565322,-1.429550,-6.630000,123,126,123
1.565322,-1.390914,-6.630000,125,128,127
1.565322,-1.352277,-6.630000,124,127,126
1.565322,-1.313641,-6.630000,125,128,127
1.558239,-1.269235,-6.600000,126,126,126
1.558239,-1.230773,-6.600000,127,127,127
1.558239,-1.192312,-6.600000,127,127,125
1.551156,-1.148605,-6.570000,128,128,128
1.551156,-1.110319,-6.570000,129,130,127
1.551156,-1.072032,-6.570000,129,130,127
1.551156,-1.033745,-6.570000,129,130,125
1.551156,-0.995458,-6.570000,129,130,127
1.551156,-0.957171,-6.570000,129,130,127
1.551156,-0.918884,-6.570000,129,130,127
1.551156,-0.880597,-6.570000,130,131,128
1.551156,-0.842311,-6.570000,129,130,127
1.551156,-0.804024,-6.570000,130,131,128
1.551156,-0.765737,-6.570000,130,131,126
1.551156,-0.727450,-6.570000,130,131,128
1.551156,-0.689163,-6.570000,129,130,127
1.551156,-0.650876,-6.570000,130,131,128
1.551156,-0.612590,-6.570000,129,130,127
1.551156,-0.574303,-6.570000,130,131,128
1.551156,-0.536016,-6.570000,129,130,127
1.551156,-0.497729,-6.570000,130,130,130
1.551156,-0.459442,-6.570000,130,131,128
1.551156,-0.421155,-6.570000,129,129,129
1.551156,-0.382868,-6.570000,129,129,129
1.551156,-0.344582,-6.570000,129,129,129
1.551156,-0.306295,-6.570000,130,131,128
1.551156,-0.268008,-6.570000,130,131,128
1.551156,-0.229721,-6.570000,132,132,130
1.551156,-0.191434,-6.570000,129,130,127
1.551156,-0.153147,-6.570000,130,131,128
1.551156,-0.114861,-6.570000,130,131,128
1.551156,-0.076574,-6.570000,129,130,125
1.551156,-0.038287,-6.570000,130,130,130
1.551156,0.000000,-6.570000,130,131,126
1.544073,0.038112,-6.540000,130,130,130
1.544073,0.076224,-6.540000,129,129,129
1.544073,0.114336,-6.540000,129,130,127
1.536990,0.151749,-6.510000,127,127,127
1.536990,0.189686,-6.510000,119,119,119
1.536990,0.227623,-6.510000,108,109,106
1.536990,0.265560,-6.510000,98,98,96
1.536990,0.303498,-6.510000,90,88,84
1.536990,0.341435,-6.510000,84,82,81
1.529907,0.377624,-6.480000,77,75,74
1.529907,0.415386,-6.480000,71,69,68
1.522824,0.451051,-6.450000,66,64,62
1.522824,0.488638,-6.450000,61,57,56
1.329225,0.459326,-5.630000,55,53,52
1.324503,0.490386,-5.610000,36,37,41
1.319781,0.521214,-5.590000,7,17,25
1.312698,0.550818,-5.560000,4,12,30
1.303254,0.579023,-5.520000,7,18,32
1.293811,0.606762,-5.480000,7,18,34
1.293811,0.638697,-5.480000,10,24,37
1.282006,0.664513,-5.430000,12,25,41
1.277284,0.693592,-5.410000,6,19,38
1.272562,0.722438,-5.390000,7,21,37
1.272562,0.753849,-5.390000,10,24,37
1.267840,0.782345,-5.370000,10,24,37
1.263118,0.810609,-5.350000,6,20,36
1.258396,0.838639,-5.330000,6,21,41
1.253674,0.866437,-5.310000,1,19,33
1.253674,0.897381,-5.310000,0,15,33
1.253674,0.928325,-5.310000,0,13,34
1.248952,0.955656,-5.290000,0,9,32
1.244230,0.982754,-5.270000,0,11,31
1.244230,1.013465,-5.270000,0,12,31
1.244230,1.044176,-5.270000,0,12,31
1.244230,1.074887,-5.270000,0,12,29
1.239508,1.101402,-5.250000,0,12,37
1.239508,1.131997,-5.250000,0,10,36
1.239508,1.162591,-5.250000,0,12,33
1.239508,1.193186,-5.250000,0,10,34
1.239508,1.223780,-5.250000,3,15,38
1.239508,1.254375,-5.250000,0,11,35
1.239508,1.284969,-5.250000,0,9,32
1.239508,1.315564,-5.250000,0,9,32
1.239508,1.346158,-5.250000,0,7,30
1.244230,1.381998,-5.270000,0,10,32
1.244230,1.412709,-5.270000,0,9,32
1.248952,1.448898,-5.290000,2,15,33
1.253674,1.485320,-5.310000,2,14,35
1.258396,1.521975,-5.330000,1,16,38
1.258396,1.553036,-5.330000,4,19,38
1.263118,1.590040,-5.350000,5,20,40
1.267840,1.627278,-5.370000,9,22,40
1.267840,1.658572,-5.370000,5,20,40
1.272562,1.696160,-5.390000,4,22,39
1.610756,-1.862943,-6.660000,118,121,120
1.610756,-1.824132,-6.660000,118,121,120
1.618012,-1.793363,-6.690000,118,121,120
1.618012,-1.754377,-6.690000,119,122,121
1.618012,-1.715391,-6.690000,119,122,121
1.618012,-1.676404,-6.690000,121,123,122
1.618012,-1.637418,-6.690000,123,126,123
1.618012,-1.598432,-6.690000,122,125,121
1.610756,-1.552453,-6.660000,123,126,123
1.610756,-1.513642,-6.660000,122,124,123
1.610756,-1.474830,-6.660000,123,126,123
1.610756,-1.436019,-6.660000,124,127,124
1.610756,-1.397208,-6.660000,124,127,126
1.603500,-1.352277,-6.630000,125,128,127
1.603500,-1.313641,-6.630000,124,127,124
1.596245,-1.269235,-6.600000,127,127,125
1.596245,-1.230773,-6.600000,127,127,125
1.596245,-1.192312,-6.600000,128,128,126
1.596245,-1.153850,-6.600000,127,127,125
1.588989,-1.110319,-6.570000,128,128,126
1.588989,-1.072032,-6.570000,128,128,126
1.588989,-1.033745,-6.570000,128,128,126
1.588989,-0.995458,-6.570000,128,128,126
1.588989,-0.957171,-6.570000,128,128,126
1.588989,-0.918884,-6.570000,128,128,126
1.588989,-0.880597,-6.570000,130,131,128
1.588989,-0.842311,-6.570000,128,128,126
1.588989,-0.804024,-6.570000,130,130,130
1.588989,-0.765737,-6.570000,129,130,125
1.588989,-0.727450,-6.570000,129,130,127
1.588989,-0.689163,-6.570000,130,131,128
1.588989,-0.650876,-6.570000,129,130,127
1.588989,-0.612590,-6.570000,129,129,129
1.588989,-0.574303,-6.570000,129,130,127
1.588989,-0.536016,-6.570000,130,131,128
1.588989,-0.497729,-6.570000,129,129,129
1.588989,-0.459442,-6.570000,130,131,128
1.588989,-0.421155,-6.570000,130,130,130
1.588989,-0.382868,-6.570000,130,130,130
1.588989,-0.344582,-6.570000,130,131,128
1.588989,-0.306295,-6.570000,132,132,130
1.588989,-0.268008,-6.570000,132,132,130
1.588989,-0.229721,-6.570000,130,131,128
1.588989,-0.191434,-6.570000,130,131,128
1.588989,-0.153147,-6.570000,130,131,128
1.588989,-0.114861,-6.570000,130,131,126
1.588989,-0.076574,-6.570000,129,130,125
1.588989,-0.038287,-6.570000,130,130,130
1.588989,0.000000,-6.570000,130,131,128
1.581733,0.038112,-6.540000,130,130,130
1.581733,0.076224,-6.540000,129,129,129
1.581733,0.114336,-6.540000,129,129,129
1.581733,0.152448,-6.540000,127,127,127
1.574478,0.189686,-6.510000,121,121,121
1.574478,0.227623,-6.510000,109,110,107
1.574478,0.265560,-6.510000,101,102,99
1.574478,0.303498,-6.510000,94,92,88
1.574478,0.341435,-6.510000,85,83,82
1.574478,0.379372,-6.510000,78,76,75
1.567222,0.415386,-6.480000,73,71,67
1.567222,0.453148,-6.480000,66,64,60
1.559967,0.488638,-6.450000,63,58,57
1.361645,0.459326,-5.630000,56,54,53
1.361645,0.492135,-5.630000,20,28,37
1.351971,0.521214,-5.590000,11,21,29
1.344715,0.550818,-5.560000,3,9,25
1.335041,0.579023,-5.520000,6,17,31
1.325367,0.606762,-5.480000,6,16,33
1.318111,0.635200,-5.450000,10,24,37
1.313274,0.664513,-5.430000,12,25,41
1.308437,0.693592,-5.410000,12,25,41
1.303600,0.722438,-5.390000,2,15,29
1.298763,0.751052,-5.370000,2,15,31
1.293926,0.779432,-5.350000,7,23,36
1.289089,0.807579,-5.330000,5,21,34
1.289089,0.838639,-5.330000,0,15,35
1.284252,0.866437,-5.310000,0,12,31
1.284252,0.897381,-5.310000,0,11,28
1.279414,0.924828,-5.290000,0,9,27
1.279414,0.955656,-5.290000,0,7,28
1.274577,0.982754,-5.270000,0,8,31
1.274577,1.013465,-5.270000,0,8,29
1.274577,1.044176,-5.270000,1,11,31
1.269740,1.070808,-5.250000,0,10,34
1.269740,1.101402,-5.250000,0,11,37
1.269740,1.131997,-5.250000,0,10,36
1.269740,1.162591,-5.250000,0,13,36
1.269740,1.193186,-5.250000,0,13,34
1.269740,1.223780,-5.250000,2,12,36
1.269740,1.254375,-5.250000,0,10,36
1.269740,1.284969,-5.250000,0,10,34
1.269740,1.315564,-5.250000,0,8,31
1.274577,1.351287,-5.270000,0,9,32
1.274577,1.381998,-5.270000,0,13,36
1.279414,1.418070,-5.290000,0,13,36
1.284252,1.454376,-5.310000,0,13,34
1.284252,1.485320,-5.310000,3,16,34
1.289089,1.521975,-5.330000,0,13,36
1.293926,1.558863,-5.350000,5,20,40
1.298763,1.595985,-5.370000,4,19,38
1.298763,1.627278,-5.370000,6,19,38
1.303600,1.664749,-5.390000,4,19,38
1.308437,1.702453,-5.410000,5,23,40
1.656536,-1.871335,-6.690000,117,120,119
1.656536,-1.832349,-6.690000,119,122,121
1.656536,-1.793363,-6.690000,119,122,121
1.656536,-1.754377,-6.690000,121,123,122
1.656536,-1.715391,-6.690000,119,122,119
1.656536,-1.676404,-6.690000,121,123,122
1.656536,-1.637418,-6.690000,122,125,121
1.656536,-1.598432,-6.690000,122,125,121
1.656536,-1.559446,-6.690000,123,126,123
1.649107,-1.513642,-6.660000,123,125,125
1.649107,-1.474830,-6.660000,123,126,123
1.649107,-1.436019,-6.660000,124,127,124
1.649107,-1.397208,-6.660000,123,126,123
1.641679,-1.352277,-6.630000,123,125,125
1.641679,-1.313641,-6.630000,125,128,125
1.634251,-1.269235,-6.600000,126,126,124
1.634251,-1.230773,-6.600000,127,127,125
1.634251,-1.192312,-6.600000,128,128,126
1.634251,-1.153850,-6.600000,128,128,126
1.634251,-1.115388,-6.600000,127,128,123
1.634251,-1.076927,-6.600000,129,130,127
1.634251,-1.038465,-6.600000,129,130,127
1.634251,-1.000003,-6.600000,129,130,127
1.634251,-0.961542,-6.600000,129,130,127
1.626822,-0.918884,-6.570000,128,128,126
1.626822,-0.880597,-6.570000,129,130,127
1.626822,-0.842311,-6.570000,129,129,129
1.626822,-0.804024,-6.570000,129,129,129
1.626822,-0.765737,-6.570000,130,131,128
1.626822,-0.727450,-6.570000,129,130,127
1.626822,-0.689163,-6.570000,130,131,128
1.626822,-0.650876,-6.570000,129,130,127
1.626822,-0.612590,-6.570000,130,130,130
1.626822,-0.574303,-6.570000,129,129,129
1.626822,-0.536016,-6.570000,130,130,130
1.626822,-0.497729,-6.570000,130,130,130
1.626822,-0.459442,-6.570000,129,130,127
1.626822,-0.421155,-6.570000,130,130,130
1.626822,-0.382868,-6.570000,129,129,129
1.626822,-0.344582,-6.570000,129,129,129
1.626822,-0.306295,-6.570000,130,130,130
1.626822,-0.268008,-6.570000,130,130,130
1.626822,-0.229721,-6.570000,132,132,128
1.626822,-0.191434,-6.570000,130,131,128
1.626822,-0.153147,-6.570000,130,131,128
1.626822,-0.114861,-6.570000,129,130,125
1.626822,-0.076574,-6.570000,130,131,128
1.626822,-0.038287,-6.570000,130,131,128
1.626822,0.000000,-6.570000,130,130,130
1.619394,0.038112,-6.540000,130,130,130
1.619394,0.076224,-6.540000,129,129,129
1.619394,0.114336,-6.540000,128,128,128
1.619394,0.152448,-6.540000,125,125,125
1.611965,0.189686,-6.510000,121,121,119
1.611965,0.227623,-6.510000,113,113,111
1.611965,0.265560,-6.510000,105,105,103
1.611965,0.303498,-6.510000,95,96,93
1.611965,0.341435,-6.510000,88,86,84
1.611965,0.379372,-6.510000,81,79,75
1.611965,0.417309,-6.510000,76,75,68
1.604537,0.453148,-6.480000,69,67,63
1.597109,0.488638,-6.450000,61,59,57
1.423779,0.469116,-5.750000,56,54,53
1.394065,0.492135,-5.630000,16,27,35
1.384161,0.521214,-5.590000,5,13,24
1.376732,0.550818,-5.560000,0,9,24
1.366828,0.579023,-5.520000,3,15,27
1.356923,0.606762,-5.480000,6,16,35
1.349495,0.635200,-5.450000,9,22,38
1.344543,0.664513,-5.430000,9,22,38
1.339590,0.693592,-5.410000,12,25,41
1.334638,0.722438,-5.390000,6,20,34
1.329686,0.751052,-5.370000,2,13,30
1.324733,0.779432,-5.350000,2,18,33
1.319781,0.807579,-5.330000,0,15,30
1.319781,0.838639,-5.330000,0,11,34
1.314829,0.866437,-5.310000,0,9,31
1.314829,0.897381,-5.310000,0,10,30
1.309877,0.924828,-5.290000,0,9,27
1.309877,0.955656,-5.290000,0,8,30
1.304924,0.982754,-5.270000,0,8,30
1.304924,1.013465,-5.270000,0,7,30
1.304924,1.044176,-5.270000,0,9,28
1.299972,1.070808,-5.250000,0,6,30
1.299972,1.101402,-5.250000,0,10,34
1.299972,1.131997,-5.250000,0,9,32
1.299972,1.162591,-5.250000,0,12,38
1.299972,1.193186,-5.250000,2,14,37
1.299972,1.223780,-5.250000,0,8,34
1.299972,1.254375,-5.250000,0,10,36
1.304924,1.289865,-5.270000,0,13,36
1.304924,1.320576,-5.270000,0,13,36
1.309877,1.356415,-5.290000,0,11,35
1.309877,1.387243,-5.290000,0,14,39
1.314829,1.423431,-5.310000,3,15,38
1.314829,1.454376,-5.310000,4,14,38
1.319781,1.490914,-5.330000,0,13,34
1.324733,1.527686,-5.350000,0,15,37
1.329686,1.564691,-5.370000,2,18,35
1.329686,1.595985,-5.370000,2,17,37
1.334638,1.633339,-5.390000,5,18,36
1.339590,1.670926,-5.410000,7,24,43
1.339590,1.702453,-5.410000,12,31,45
1.695060,-1.871335,-6.690000,117,120,119
1.695060,-1.832349,-6.690000,119,122,121
1.695060,-1.793363,-6.690000,118,121,120
1.695060,-1.754377,-6.690000,119,122,119
1.695060,-1.715391,-6.690000,118,121,118
1.695060,-1.676404,-6.690000,119,122,121
1.695060,-1.637418,-6.690000,122,125,121
1.695060,-1.598432,-6.690000,122,125,121
1.695060,-1.559446,-6.690000,123,126,123
