-0.000000,-0.000000,-0.000000,3,0,21
-0.000000,-0.000000,-0.000000,9,2,29
-0.000000,-0.000000,-0.000000,11,5,25
-0.000000,-0.000000,-0.000000,9,2,27
-0.000000,0.000000,-0.000000,6,0,25
-0.000000,0.000000,-0.000000,6,0,25
-0.000000,0.000000,-0.000000,10,4,26
-0.000000,0.000000,-0.000000,12,6,31
-0.000000,0.000000,-0.000000,14,8,35
-0.000000,0.000000,-0.000000,9,2,27
-0.000000,0.000000,-0.000000,9,2,27
-0.000000,0.000000,-0.000000,9,3,25
-0.000000,0.000000,-0.000000,9,1,20
-0.195418,0.195418,-3.750000,15,7,28
-0.195418,0.217131,-3.750000,10,3,21
-0.195939,0.239481,-3.760000,99,80,71
-0.196461,0.261947,-3.770000,135,119,74
-0.197503,0.285282,-3.790000,135,117,73
-0.198545,0.308848,-3.810000,133,116,67
-0.199066,0.331777,-3.820000,133,115,69
-0.200108,0.355748,-3.840000,129,111,67
-0.200629,0.378967,-3.850000,127,111,66
-0.201672,0.403343,-3.870000,125,110,65
-0.203235,0.429052,-3.900000,122,105,68
-0.204798,0.455107,-3.930000,120,106,68
-0.206362,0.481511,-3.960000,119,104,68
-0.208446,0.509535,-4.000000,121,104,68
-0.210010,0.536691,-4.030000,117,100,65
-0.211573,0.564194,-4.060000,116,100,69
-0.213136,0.592045,-4.090000,116,102,79
-0.265248,0.766271,-5.090000,105,93,93
-0.265248,0.795743,-5.090000,100,99,104
-0.265248,0.825215,-5.090000,112,112,112
-0.265248,0.854687,-5.090000,115,115,117
-0.265248,0.884159,-5.090000,118,117,120
-0.216784,0.746700,-4.160000,119,119,119
-0.215221,0.765229,-4.130000,120,120,122
-0.214700,0.787232,-4.120000,121,121,123
-0.214178,0.809119,-4.110000,121,121,123
-0.214178,0.832916,-4.110000,89,76,60
-0.214700,0.858798,-4.120000,109,96,68
-0.214700,0.882654,-4.120000,121,109,81
-0.215221,0.908709,-4.130000,126,115,89
-0.215221,0.932623,-4.130000,132,124,90
-0.216784,0.963484,-4.160000,122,117,91
-0.265248,1.208351,-5.090000,119,110,81
-0.265248,1.237823,-5.090000,110,100,74
-0.266290,1.272274,-5.110000,122,122,124
-0.266290,1.301862,-5.110000,126,125,128
-0.266290,1.331450,-5.110000,122,122,124
-0.266290,1.361038,-5.110000,123,123,125
-0.266290,1.390625,-5.110000,125,124,129
-0.266290,1.420213,-5.110000,120,120,122
-0.266290,1.449801,-5.110000,118,117,120
-0.266290,1.479389,-5.110000,119,118,121
-0.266290,1.508977,-5.110000,118,117,120
-0.267332,1.544586,-5.130000,114,114,114
-0.267332,1.574290,-5.130000,111,111,109
-0.267332,1.603993,-5.130000,113,113,111
-0.267332,1.633697,-5.130000,115,116,113
-0.267332,1.663400,-5.130000,112,112,112
-0.267332,1.693104,-5.130000,112,112,110
-0.267332,1.722808,-5.130000,109,109,109
-0.185749,-1.044836,-4.010000,121,116,65
-0.188065,-1.034356,-4.060000,117,111,61
-0.234849,-1.262315,-5.070000,103,94,52
-0.234849,-1.232959,-5.070000,88,81,58
-0.234849,-1.203603,-5.070000,86,82,79
-0.235776,-1.178879,-5.090000,84,79,76
-0.235776,-1.149407,-5.090000,81,77,74
-0.234849,-1.115534,-5.070000,79,72,72
-0.234849,-1.086178,-5.070000,77,70,70
-0.234849,-1.056822,-5.070000,73,67,65
-0.185285,-0.810624,-4.000000,71,64,66
-0.183896,-0.781557,-3.970000,72,63,61
-0.183896,-0.758570,-3.970000,68,61,59
-0.181580,-0.726319,-3.920000,81,71,63
-0.181580,-0.703622,-3.920000,85,74,58
-0.181580,-0.680924,-3.920000,89,71,52
-0.181580,-0.658227,-3.920000,88,71,47
-0.181117,-0.633908,-3.910000,95,79,50
-0.179264,-0.605015,-3.870000,92,76,50
-0.178337,-0.579596,-3.850000,96,80,51
-0.176484,-0.551514,-3.810000,101,84,49
-0.175558,-0.526674,-3.790000,103,87,56
-0.175095,-0.503397,-3.780000,110,90,56
-0.174632,-0.480237,-3.770000,113,96,58
-0.174168,-0.457192,-3.760000,116,100,58
-0.173705,-0.434263,-3.750000,124,105,66
-0.173242,-0.411450,-3.740000,130,113,69
-0.172315,-0.387710,-3.720000,137,120,76
-0.000000,-0.000000,-0.000000,2,0,16
-0.000000,-0.000000,-0.000000,11,5,25
-0.000000,-0.000000,-0.000000,11,5,25
-0.000000,-0.000000,-0.000000,9,1,20
-0.000000,-0.000000,-0.000000,9,3,21
-0.000000,-0.000000,-0.000000,7,2,22
-0.000000,-0.000000,-0.000000,7,1,24
-0.000000,-0.000000,-0.000000,6,0,25
-0.000000,-0.000000,-0.000000,3,0,21
-0.000000,-0.000000,-0.000000,4,0,20
-0.000000,-0.000000,-0.000000,0,0,20
-0.000000,-0.000000,-0.000000,0,0,15
-0.000000,-0.000000,-0.000000,0,0,16
-0.000000,-0.000000,-0.000000,0,0,21
-0.000000,-0.000000,-0.000000,4,0,25
-0.000000,-0.000000,-0.000000,6,0,23
-0.000000,-0.000000,-0.000000,3,0,21
-0.000000,0.000000,-0.000000,3,0,19
-0.000000,0.000000,-0.000000,6,0,25
-0.000000,0.000000,-0.000000,9,3,25
-0.000000,0.000000,-0.000000,10,4,26
-0.000000,0.000000,-0.000000,10,4,26
-0.000000,0.000000,-0.000000,10,4,26
-0.000000,0.000000,-0.000000,9,2,27
-0.000000,0.000000,-0.000000,5,0,20
-0.171852,0.171852,-3.710000,5,0,20
-0.173242,0.194897,-3.740000,10,2,23
-0.173705,0.217131,-3.750000,11,1,20
-0.174168,0.239481,-3.760000,127,114,71
-0.174632,0.261947,-3.770000,135,119,74
-0.175095,0.284529,-3.780000,135,118,71
-0.176484,0.308848,-3.810000,132,115,66
-0.177411,0.332645,-3.830000,132,117,70
-0.178337,0.356675,-3.850000,133,115,73
-0.178337,0.378967,-3.850000,128,112,69
-0.179264,0.403343,-3.870000,127,109,65
-0.180190,0.427952,-3.890000,124,108,70
-0.181580,0.453949,-3.920000,123,108,74
-0.183433,0.481511,-3.960000,120,105,74
-0.185285,0.509535,-4.000000,121,107,71
-0.186675,0.536691,-4.030000,120,103,67
-0.187138,0.561415,-4.040000,116,100,69
-0.188528,0.589150,-4.070000,112,100,79
-0.189454,0.615727,-4.090000,45,43,57
-0.234386,0.791053,-5.060000,66,67,76
-0.235776,0.825215,-5.090000,113,113,113
-0.235776,0.854687,-5.090000,116,116,118
-0.191307,0.717402,-4.130000,118,117,120
-0.190844,0.739521,-4.120000,120,120,122
-0.190844,0.763376,-4.120000,119,118,121
-0.190844,0.787232,-4.120000,120,120,122
-0.190844,0.811087,-4.120000,119,118,121
-0.190844,0.834943,-4.120000,93,80,59
-0.190844,0.858798,-4.120000,111,97,70
-0.190844,0.882654,-4.120000,122,110,82
-0.191307,0.908709,-4.130000,131,121,95
-0.191307,0.932623,-4.130000,138,132,100
-0.192697,0.963484,-4.160000,121,113,91
-0.235776,1.208351,-5.090000,120,112,88
-0.235776,1.237823,-5.090000,110,102,82
-0.236702,1.272274,-5.110000,118,117,122
-0.236702,1.301862,-5.110000,121,121,123
-0.236702,1.331450,-5.110000,121,120,125
-0.236702,1.361038,-5.110000,121,121,123
-0.236702,1.390625,-5.110000,123,123,127
-0.236702,1.420213,-5.110000,123,123,125
-0.236702,1.449801,-5.110000,121,121,123
-0.236702,1.479389,-5.110000,120,120,122
-0.236702,1.508977,-5.110000,118,117,120
-0.237629,1.544586,-5.130000,116,116,116
-0.237629,1.574290,-5.130000,114,114,112
-0.237629,1.603993,-5.130000,116,117,114
-0.237629,1.633697,-5.130000,116,117,114
-0.237629,1.663400,-5.130000,115,116,113
-0.237629,1.693104,-5.130000,113,113,111
-0.237629,1.722808,-5.130000,113,113,113
-0.162125,-1.042231,-4.000000,123,117,67
-0.163746,-1.029261,-4.040000,119,114,63
-0.205088,-1.259825,-5.060000,108,97,53
-0.205493,-1.232959,-5.070000,86,79,54
-0.205493,-1.203603,-5.070000,88,84,81
-0.206304,-1.178879,-5.090000,86,82,79
-0.206304,-1.149407,-5.090000,81,77,74
-0.206304,-1.119935,-5.090000,79,72,72
-0.205493,-1.086178,-5.070000,77,70,70
-0.205493,-1.056822,-5.070000,72,66,63
-0.162125,-0.810624,-4.000000,72,65,68
-0.161314,-0.783526,-3.980000,69,62,60
-0.160909,-0.758570,-3.970000,66,60,56
-0.159288,-0.728172,-3.930000,77,66,61
-0.159288,-0.705417,-3.930000,86,75,61
-0.159288,-0.682661,-3.930000,87,72,54
-0.159288,-0.659906,-3.930000,90,71,48
-0.158477,-0.633908,-3.910000,92,76,50
-0.157261,-0.606578,-3.880000,92,76,50
-0.156045,-0.579596,-3.850000,97,81,52
-0.154829,-0.552961,-3.820000,102,85,50
-0.154424,-0.529453,-3.810000,102,86,55
-0.153613,-0.504729,-3.790000,108,90,58
-0.152803,-0.480237,-3.770000,113,96,60
-0.152397,-0.457192,-3.760000,116,100,60
-0.151587,-0.433105,-3.740000,121,104,64
-0.151181,-0.410349,-3.730000,128,111,64
-0.150776,-0.387710,-3.720000,133,115,71
-0.150371,-0.365186,-3.710000,2,0,6
-0.000000,-0.000000,-0.000000,6,1,19
-0.000000,-0.000000,-0.000000,7,2,22
-0.000000,-0.000000,-0.000000,8,0,19
-0.000000,-0.000000,-0.000000,9,3,21
-0.000000,-0.000000,-0.000000,10,4,24
-0.000000,-0.000000,-0.000000,9,3,25
-0.000000,-0.000000,-0.000000,3,0,21
-0.000000,-0.000000,-0.000000,3,0,23
-0.000000,-0.000000,-0.000000,0,0,18
-0.000000,-0.000000,-0.000000,0,0,14
-0.000000,-0.000000,-0.000000,0,0,11
-0.000000,-0.000000,-0.000000,0,0,19
-0.000000,-0.000000,-0.000000,6,0,27
-0.000000,-0.000000,-0.000000,11,4,31
-0.000000,-0.000000,-0.000000,11,5,27
-0.000000,-0.000000,-0.000000,6,0,25
-0.000000,0.000000,-0.000000,9,3,23
-0.000000,0.000000,-0.000000,9,1,24
-0.000000,0.000000,-0.000000,11,5,29
-0.000000,0.000000,-0.000000,10,4,26
-0.000000,0.000000,-0.000000,7,1,24
-0.000000,0.000000,-0.000000,7,2,22
-0.000000,0.000000,-0.000000,7,1,26
-0.149965,0.149965,-3.700000,9,3,23
-0.151181,0.172779,-3.730000,9,3,23
-0.151587,0.194897,-3.740000,13,5,23
-0.151992,0.217131,-3.750000,80,63,67
-0.152397,0.239481,-3.760000,131,118,72
-0.152803,0.261947,-3.770000,134,118,73
-0.153208,0.284529,-3.780000,135,118,71
-0.154424,0.308848,-3.810000,135,118,71
-0.155234,0.332645,-3.830000,132,117,72
-0.156045,0.356675,-3.850000,130,114,72
-0.156045,0.378967,-3.850000,131,115,73
-0.156856,0.403343,-3.870000,128,111,71
-0.157666,0.427952,-3.890000,127,109,74
-0.158882,0.453949,-3.920000,124,109,75
-0.160504,0.481511,-3.960000,123,107,78
-0.161719,0.508261,-3.990000,124,108,77
-0.162125,0.532696,-4.000000,118,101,68
-0.163341,0.560025,-4.030000,117,101,72
-0.163341,0.583360,-4.030000,107,93,77
-0.164557,0.611210,-4.060000,53,52,71
-0.164962,0.636282,-4.070000,52,53,71
-0.201440,0.805760,-4.970000,113,113,115
-0.168204,0.696847,-4.150000,115,115,117
-0.166583,0.713928,-4.110000,120,119,124
-0.166989,0.739521,-4.120000,119,118,123
-0.166989,0.763376,-4.120000,118,118,118
-0.166989,0.787232,-4.120000,119,118,121
-0.166989,0.811087,-4.120000,88,73,56
-0.166989,0.834943,-4.120000,104,89,67
-0.166989,0.858798,-4.120000,115,101,76
-0.167394,0.884796,-4.130000,124,113,83
-0.167394,0.908709,-4.130000,128,119,91
-0.167394,0.932623,-4.130000,152,146,127
-0.169015,0.965801,-4.170000,131,123,105
-0.206304,1.208351,-5.090000,123,115,97
-0.207114,1.242687,-5.110000,110,103,89
-0.207114,1.272274,-5.110000,123,122,129
-0.207114,1.301862,-5.110000,125,124,129
-0.207114,1.331450,-5.110000,123,123,127
-0.207114,1.361038,-5.110000,125,124,127
-0.207114,1.390625,-5.110000,125,124,129
-0.207114,1.420213,-5.110000,125,124,127
-0.207114,1.449801,-5.110000,120,119,124
-0.207114,1.479389,-5.110000,118,117,120
-0.207114,1.508977,-5.110000,118,117,120
-0.207925,1.544586,-5.130000,116,116,116
-0.207925,1.574290,-5.130000,115,116,113
-0.207925,1.603993,-5.130000,113,113,111
-0.207925,1.633697,-5.130000,113,113,111
-0.207925,1.663400,-5.130000,113,113,111
-0.207925,1.693104,-5.130000,111,111,111
-0.207925,1.722808,-5.130000,109,109,109
-0.138964,-1.042231,-4.000000,121,116,65
-0.139312,-1.021618,-4.010000,118,112,62
-0.143133,-1.025787,-4.120000,108,98,49
-0.176137,-1.232959,-5.070000,80,73,46
-0.176137,-1.203603,-5.070000,91,87,81
-0.176832,-1.178879,-5.090000,87,83,80
-0.176832,-1.149407,-5.090000,84,78,75
-0.176832,-1.119935,-5.090000,80,74,72
-0.176137,-1.086178,-5.070000,78,71,71
-0.176137,-1.056822,-5.070000,73,67,65
-0.138964,-0.810624,-4.000000,71,64,64
-0.138269,-0.783526,-3.980000,69,62,60
-0.138269,-0.760481,-3.980000,68,62,55
-0.136532,-0.728172,-3.930000,72,64,57
-0.136532,-0.705417,-3.930000,86,75,63
-0.136532,-0.682661,-3.930000,90,74,59
-0.136532,-0.659906,-3.930000,89,70,49
-0.135837,-0.633908,-3.910000,95,79,50
-0.134795,-0.606578,-3.880000,94,78,49
-0.134100,-0.581102,-3.860000,98,82,54
-0.133058,-0.554409,-3.830000,102,85,52
-0.132363,-0.529453,-3.810000,103,87,56
-0.131668,-0.504729,-3.790000,106,92,56
-0.130974,-0.480237,-3.770000,114,97,62
-0.130279,-0.455976,-3.750000,116,99,62
-0.129931,-0.433105,-3.740000,120,103,65
-0.129584,-0.410349,-3.730000,125,107,61
-0.129237,-0.387710,-3.720000,130,113,67
-0.129237,-0.366170,-3.720000,133,115,73
-0.128889,-0.343705,-3.710000,6,1,19
-0.000000,-0.000000,-0.000000,7,2,22
-0.000000,-0.000000,-0.000000,9,1,22
-0.000000,-0.000000,-0.000000,9,1,22
-0.000000,-0.000000,-0.000000,6,1,21
-0.000000,-0.000000,-0.000000,9,3,23
-0.000000,-0.000000,-0.000000,9,3,25
-0.000000,-0.000000,-0.000000,9,2,29
-0.000000,-0.000000,-0.000000,5,0,24
-0.000000,-0.000000,-0.000000,3,0,21
-0.000000,-0.000000,-0.000000,4,0,16
-0.000000,-0.000000,-0.000000,7,1,24
-0.000000,-0.000000,-0.000000,9,2,29
-0.000000,-0.000000,-0.000000,8,0,27
-0.000000,-0.000000,-0.000000,11,5,27
-0.127847,-0.021308,-3.680000,6,0,25
-0.128194,0.000000,-3.690000,9,3,23
-0.128542,0.021424,-3.700000,13,5,23
-0.128889,0.042963,-3.710000,11,5,29
-0.128889,0.064445,-3.710000,10,4,26
-0.128889,0.085926,-3.710000,7,2,22
-0.128542,0.107118,-3.700000,7,2,20
-0.128889,0.128889,-3.710000,10,4,24
-0.129237,0.150776,-3.720000,10,5,22
-0.129584,0.172779,-3.730000,2,0,16
-0.129931,0.194897,-3.740000,54,42,32
-0.130279,0.217131,-3.750000,120,106,66
-0.130626,0.239481,-3.760000,136,119,70
-0.130974,0.261947,-3.770000,134,118,71
-0.131321,0.284529,-3.780000,133,116,67
-0.132363,0.308848,-3.810000,134,114,71
-0.133058,0.332645,-3.830000,133,115,71
-0.133406,0.355748,-3.840000,134,118,75
-0.133753,0.378967,-3.850000,132,116,76
-0.134100,0.402301,-3.860000,129,112,75
-0.134795,0.426851,-3.880000,121,107,69
-0.135837,0.452791,-3.910000,121,107,71
-0.136532,0.477863,-3.930000,122,104,74
-0.137574,0.504440,-3.960000,121,106,75
-0.138617,0.531364,-3.990000,117,101,70
-0.138964,0.555856,-4.000000,106,92,65
-0.140006,0.583360,-4.030000,40,41,63
-0.140006,0.606694,-4.030000,52,52,75
-0.141396,0.636282,-4.070000,69,66,81
-0.143480,0.669575,-4.130000,117,114,117
-0.142786,0.690131,-4.110000,118,117,120
-0.142786,0.713928,-4.110000,121,120,125
-0.143133,0.739521,-4.120000,121,120,127
-0.143133,0.763376,-4.120000,121,121,121
-0.143133,0.787232,-4.120000,84,68,51
-0.142786,0.809119,-4.110000,98,83,61
-0.143133,0.834943,-4.120000,111,96,74
-0.143133,0.858798,-4.120000,121,106,84
-0.143480,0.884796,-4.130000,126,115,85
-0.143480,0.908709,-4.130000,131,122,93
-0.143480,0.932623,-4.130000,178,171,157
-0.176832,1.178879,-5.090000,129,121,103
-0.176832,1.208351,-5.090000,126,117,101
-0.177527,1.242687,-5.110000,121,117,112
-0.177527,1.272274,-5.110000,128,127,134
-0.177527,1.301862,-5.110000,126,124,134
-0.177527,1.331450,-5.110000,123,122,129
-0.177527,1.361038,-5.110000,121,120,125
-0.177527,1.390625,-5.110000,120,119,124
-0.177527,1.420213,-5.110000,122,121,126
-0.177527,1.449801,-5.110000,121,120,127
-0.178221,1.485179,-5.130000,119,118,123
-0.177527,1.508977,-5.110000,118,117,122
-0.178221,1.544586,-5.130000,114,114,114
-0.178221,1.574290,-5.130000,114,114,112
-0.178221,1.603993,-5.130000,114,114,112
-0.178221,1.633697,-5.130000,115,115,115
-0.178221,1.663400,-5.130000,112,112,112
-0.178221,1.693104,-5.130000,111,111,111
-0.178221,1.722808,-5.130000,112,112,112
-0.115514,-1.039625,-3.990000,114,109,58
-0.115803,-1.019070,-4.000000,119,112,62
-0.118409,-1.018317,-4.090000,112,101,53
-0.146491,-1.230527,-5.060000,85,76,49
-0.146781,-1.203603,-5.070000,89,86,80
-0.147360,-1.178879,-5.090000,87,83,80
-0.147360,-1.149407,-5.090000,84,77,77
-0.147360,-1.119935,-5.090000,80,74,74
-0.146781,-1.086178,-5.070000,77,71,68
-0.146781,-1.056822,-5.070000,75,68,66
-0.115803,-0.810624,-4.000000,72,65,66
-0.115514,-0.785495,-3.990000,70,64,61
-0.115224,-0.760481,-3.980000,66,60,56
-0.113777,-0.728172,-3.930000,45,40,42
-0.114356,-0.709006,-3.950000,86,75,63
-0.114356,-0.686135,-3.950000,86,72,58
-0.114356,-0.663264,-3.950000,87,68,45
-0.113198,-0.633908,-3.910000,94,78,47
-0.112329,-0.606578,-3.880000,90,74,45
-0.111750,-0.581102,-3.860000,96,80,51
-0.111171,-0.555856,-3.840000,102,85,52
-0.110303,-0.529453,-3.810000,104,87,56
-0.109724,-0.504729,-3.790000,110,93,58
-0.109145,-0.480237,-3.770000,116,99,62
-0.108566,-0.455976,-3.750000,117,101,63
-0.108276,-0.433105,-3.740000,122,105,70
-0.107987,-0.410349,-3.730000,123,108,63
-0.107697,-0.387710,-3.720000,129,111,67
-0.107697,-0.366170,-3.720000,128,110,68
-0.107697,-0.344631,-3.720000,109,98,66
-0.107697,-0.323092,-3.720000,0,0,13
-0.107408,-0.300741,-3.710000,4,0,18
-0.107408,-0.279260,-3.710000,9,1,22
-0.107408,-0.257778,-3.710000,7,1,24
-0.107408,-0.236297,-3.710000,9,1,20
-0.107118,-0.214236,-3.700000,11,3,24
-0.106829,-0.192292,-3.690000,7,1,26
-0.106829,-0.170926,-3.690000,6,0,23
-0.000000,-0.000000,-0.000000,5,0,24
-0.000000,-0.000000,-0.000000,6,1,19
-0.000000,-0.000000,-0.000000,9,3,25
-0.000000,-0.000000,-0.000000,11,4,31
-0.106539,-0.063923,-3.680000,14,5,33
-0.106829,-0.042731,-3.690000,14,9,29
-0.106829,-0.021366,-3.690000,11,4,31
-0.107118,0.000000,-3.700000,5,0,18
-0.107408,0.021482,-3.710000,12,2,19
-0.107408,0.042963,-3.710000,28,22,45
-0.107408,0.064445,-3.710000,46,40,60
-0.107408,0.085926,-3.710000,44,39,54
-0.107697,0.107697,-3.720000,40,34,45
-0.107697,0.129237,-3.720000,92,84,89
-0.107987,0.151181,-3.730000,122,112,102
-0.107987,0.172779,-3.730000,70,53,32
-0.108566,0.195418,-3.750000,119,100,61
-0.108566,0.217131,-3.750000,136,119,72
-0.108566,0.238845,-3.750000,139,120,70
-0.108855,0.261253,-3.760000,136,119,70
-0.109145,0.283776,-3.770000,134,117,66
-0.110303,0.308848,-3.810000,137,117,71
-0.110882,0.332645,-3.830000,132,113,72
-0.111171,0.355748,-3.840000,134,118,73
-0.111461,0.378967,-3.850000,131,115,75
-0.111750,0.402301,-3.860000,129,112,75
-0.112329,0.426851,-3.880000,125,111,70
-0.113198,0.452791,-3.910000,124,109,73
-0.113487,0.476647,-3.920000,124,107,74
-0.114356,0.503166,-3.950000,121,103,73
-0.114645,0.527369,-3.960000,114,101,71
-0.115514,0.554467,-3.990000,40,39,62
-0.116093,0.580465,-4.010000,42,42,70
-0.116672,0.606694,-4.030000,49,51,78
-0.117830,0.636282,-4.070000,63,65,82
-0.119567,0.669575,-4.130000,116,116,118
-0.119278,0.691810,-4.120000,116,116,120
-0.119567,0.717402,-4.130000,118,117,120
-0.119567,0.741316,-4.130000,119,117,127
-0.119278,0.763376,-4.120000,78,64,48
-0.119278,0.787232,-4.120000,95,80,62
-0.118988,0.809119,-4.110000,106,92,67
-0.118988,0.832916,-4.110000,117,105,84
-0.119278,0.858798,-4.120000,128,115,96
-0.119567,0.884796,-4.130000,130,119,91
-0.119567,0.908709,-4.130000,137,130,105
-0.120146,0.937139,-4.150000,131,122,91
-0.147360,1.178879,-5.090000,121,111,92
-0.147360,1.208351,-5.090000,111,103,95
-0.147939,1.242687,-5.110000,121,119,122
-0.147939,1.272274,-5.110000,123,122,129
-0.147939,1.301862,-5.110000,125,123,135
-0.147939,1.331450,-5.110000,126,124,134
-0.147939,1.361038,-5.110000,125,123,131
-0.147939,1.390625,-5.110000,122,121,128
-0.147939,1.420213,-5.110000,121,120,127
-0.147939,1.449801,-5.110000,121,120,129
-0.148518,1.485179,-5.130000,120,119,124
-0.148518,1.514882,-5.130000,119,118,123
-0.148518,1.544586,-5.130000,116,116,116
-0.148518,1.574290,-5.130000,114,114,114
-0.148518,1.603993,-5.130000,113,113,113
-0.148518,1.633697,-5.130000,111,111,111
-0.149097,1.669885,-5.150000,109,109,109
-0.148518,1.693104,-5.130000,107,107,107
-0.148518,1.722808,-5.130000,105,105,105
-0.092180,-1.037020,-3.980000,150,147,107
-0.093338,-1.026713,-4.030000,119,112,62
-0.094032,-1.010848,-4.060000,114,104,55
-0.095422,-1.001931,-4.120000,94,84,48
-0.117425,-1.203603,-5.070000,81,73,53
-0.117425,-1.174247,-5.070000,89,85,84
-0.117888,-1.149407,-5.090000,86,81,81
-0.117425,-1.115534,-5.070000,82,75,75
-0.117425,-1.086178,-5.070000,75,71,70
-0.117425,-1.056822,-5.070000,73,69,66
-0.092643,-0.810624,-4.000000,73,67,67
-0.091948,-0.781557,-3.970000,73,64,62
-0.091485,-0.754749,-3.950000,66,60,58
-0.091021,-0.728172,-3.930000,37,36,43
-0.091485,-0.709006,-3.950000,86,75,63
-0.091485,-0.686135,-3.950000,85,71,57
-0.091485,-0.663264,-3.950000,87,68,43
-0.090558,-0.633908,-3.910000,92,77,46
-0.089863,-0.606578,-3.880000,92,77,48
-0.089400,-0.581102,-3.860000,96,80,51
-0.089169,-0.557304,-3.850000,102,85,52
-0.088242,-0.529453,-3.810000,104,87,56
-0.087547,-0.503397,-3.780000,108,90,58
-0.087316,-0.480237,-3.770000,113,96,56
-0.086853,-0.455976,-3.750000,114,97,59
-0.086853,-0.434263,-3.750000,119,100,63
-0.086389,-0.410349,-3.730000,122,106,64
-0.086389,-0.388752,-3.730000,125,107,63
-0.086158,-0.366170,-3.720000,128,110,68
-0.086158,-0.344631,-3.720000,127,111,68
-0.086158,-0.323092,-3.720000,126,110,82
-0.086158,-0.301552,-3.720000,0,0,11
-0.085926,-0.279260,-3.710000,0,0,8
-0.085926,-0.257778,-3.710000,0,0,14
-0.085926,-0.236297,-3.710000,4,0,15
-0.085926,-0.214815,-3.710000,29,21,42
-0.085926,-0.193334,-3.710000,44,40,50
-0.085463,-0.170926,-3.690000,57,52,56
-0.085463,-0.149560,-3.690000,81,75,86
-0.085463,-0.128194,-3.690000,82,78,86
-0.085463,-0.106829,-3.690000,83,80,88
-0.085463,-0.085463,-3.690000,101,98,101
-0.085463,-0.064097,-3.690000,57,52,56
-0.085695,-0.042847,-3.700000,108,101,104
-0.085695,-0.021424,-3.700000,119,112,110
-0.085926,0.000000,-3.710000,125,118,118
-0.085926,0.021482,-3.710000,124,117,117
-0.085926,0.042963,-3.710000,121,114,114
-0.085926,0.064445,-3.710000,119,112,112
-0.086158,0.086158,-3.720000,118,110,113
-0.086158,0.107697,-3.720000,125,118,118
-0.086158,0.129237,-3.720000,106,93,93
-0.086389,0.151181,-3.730000,117,96,67
-0.086621,0.173242,-3.740000,124,108,70
-0.086853,0.195418,-3.750000,139,120,81
-0.086853,0.217131,-3.750000,139,121,75
-0.086853,0.238845,-3.750000,135,118,69
-0.087084,0.261253,-3.760000,136,119,72
-0.087084,0.283024,-3.760000,136,119,70
-0.088474,0.309658,-3.820000,135,118,71
-0.088705,0.332645,-3.830000,131,115,73
-0.088937,0.355748,-3.840000,131,116,71
-0.088937,0.377982,-3.840000,130,114,74
-0.089169,0.401259,-3.850000,130,113,76
-0.089632,0.425751,-3.870000,125,111,70
-0.090558,0.452791,-3.910000,125,110,74
-0.090558,0.475431,-3.910000,124,109,75
-0.090790,0.499344,-3.920000,121,106,77
-0.091485,0.526037,-3.950000,73,63,57
-0.091716,0.550298,-3.960000,43,43,73
-0.092643,0.579017,-4.000000,42,44,73
-0.093338,0.606694,-4.030000,51,54,80
-0.094264,0.636282,-4.070000,65,67,85
-0.095654,0.669575,-4.130000,116,116,118
-0.095654,0.693489,-4.130000,115,114,119
-0.095654,0.717402,-4.130000,118,117,120
-0.095654,0.741316,-4.130000,79,63,52
-0.095422,0.763376,-4.120000,95,82,64
-0.095422,0.787232,-4.120000,105,93,72
-0.095190,0.809119,-4.110000,118,105,87
-0.095422,0.834943,-4.120000,131,117,106
-0.095422,0.858798,-4.120000,135,124,112
-0.095654,0.884796,-4.130000,136,128,106
-0.095654,0.908709,-4.130000,171,164,139
-0.117888,1.149407,-5.090000,127,118,91
-0.118351,1.183511,-5.110000,124,113,94
-0.118351,1.213099,-5.110000,109,101,94
-0.118351,1.242687,-5.110000,123,122,129
-0.118351,1.272274,-5.110000,121,120,127
-0.118351,1.301862,-5.110000,123,121,133
-0.118351,1.331450,-5.110000,126,124,134
-0.118351,1.361038,-5.110000,122,121,128
-0.118351,1.390625,-5.110000,120,119,126
-0.118351,1.420213,-5.110000,122,121,130
-0.118814,1.455475,-5.130000,121,120,127
-0.118814,1.485179,-5.130000,116,116,120
-0.118814,1.514882,-5.130000,114,113,118
-0.118814,1.544586,-5.130000,113,113,115
-0.118814,1.574290,-5.130000,112,112,112
-0.118814,1.603993,-5.130000,111,111,111
-0.119278,1.640066,-5.150000,108,108,108
-0.119278,1.669885,-5.150000,107,107,107
-0.119278,1.699705,-5.150000,106,106,106
-0.119278,1.729524,-5.150000,106,106,106
-0.069135,-1.037020,-3.980000,132,130,85
-0.070003,-1.026713,-4.030000,123,115,67
-0.070351,-1.008358,-4.050000,116,106,57
-0.070351,-0.984908,-4.050000,102,93,53
-0.070524,-0.963832,-4.060000,78,68,44
-0.088069,-1.174247,-5.070000,89,85,84
-0.088069,-1.144891,-5.070000,86,82,79
-0.088069,-1.115534,-5.070000,79,74,76
-0.088069,-1.086178,-5.070000,75,71,70
-0.000000,-0.000000,-0.000000,75,71,68
-0.000000,-0.000000,-0.000000,75,68,66
-0.067919,-0.769745,-3.910000,74,65,63
-0.067919,-0.747106,-3.910000,70,61,62
-0.068266,-0.728172,-3.930000,35,34,41
-0.068614,-0.709006,-3.950000,85,74,62
-0.068614,-0.686135,-3.950000,86,72,58
-0.068614,-0.663264,-3.950000,87,68,43
-0.068092,-0.635529,-3.920000,94,78,47
-0.067571,-0.608142,-3.890000,91,75,47
-0.067224,-0.582607,-3.870000,97,79,51
-0.066876,-0.557304,-3.850000,101,83,51
-0.066355,-0.530843,-3.820000,106,88,55
-0.065661,-0.503397,-3.780000,109,92,59
-0.065487,-0.480237,-3.770000,113,96,58
-0.065313,-0.457192,-3.760000,117,98,59
-0.065139,-0.434263,-3.750000,120,101,62
-0.064966,-0.411450,-3.740000,121,104,66
-0.064792,-0.388752,-3.730000,124,105,64
-0.064618,-0.366170,-3.720000,125,109,69
-0.064618,-0.344631,-3.720000,130,112,71
-0.064618,-0.323092,-3.720000,131,115,73
-0.064618,-0.301552,-3.720000,126,107,70
-0.064618,-0.280013,-3.720000,73,53,37
-0.064445,-0.257778,-3.710000,126,120,115
-0.064445,-0.236297,-3.710000,126,115,110
-0.064445,-0.214815,-3.710000,112,105,105
-0.064445,-0.193334,-3.710000,112,106,101
-0.064271,-0.171389,-3.700000,119,113,108
-0.064097,-0.149560,-3.690000,126,117,116
-0.064097,-0.128194,-3.690000,129,119,120
-0.064097,-0.106829,-3.690000,127,120,122
-0.064097,-0.085463,-3.690000,127,120,120
-0.064097,-0.064097,-3.690000,122,116,116
-0.064271,-0.042847,-3.700000,128,121,121
-0.064445,-0.021482,-3.710000,133,126,126
-0.064445,0.000000,-3.710000,134,127,127
-0.064445,0.021482,-3.710000,135,128,128
-0.064445,0.042963,-3.710000,134,127,127
-0.064445,0.064445,-3.710000,141,134,134
-0.064618,0.086158,-3.720000,69,58,50
-0.064618,0.107697,-3.720000,107,88,53
-0.064792,0.129584,-3.730000,131,115,77
-0.064792,0.151181,-3.730000,140,121,80
-0.064966,0.173242,-3.740000,146,128,84
-0.064966,0.194897,-3.740000,142,124,82
-0.064966,0.216552,-3.740000,140,123,74
-0.065139,0.238845,-3.750000,139,122,71
-0.065139,0.260558,-3.750000,137,120,76
-0.065313,0.283024,-3.760000,139,121,75
-0.065487,0.305605,-3.770000,135,117,73
-0.066355,0.331777,-3.820000,132,116,74
-0.066529,0.354822,-3.830000,135,118,78
-0.066529,0.376998,-3.830000,132,116,78
-0.066703,0.400217,-3.840000,130,113,78
-0.066703,0.422451,-3.840000,126,112,73
-0.067398,0.449317,-3.880000,124,108,77
-0.067398,0.471783,-3.880000,121,106,75
-0.067919,0.498071,-3.910000,79,67,71
-0.068092,0.522042,-3.920000,38,40,71
-0.068614,0.548908,-3.950000,41,40,72
-0.069482,0.579017,-4.000000,43,43,73
-0.070003,0.606694,-4.030000,50,47,75
-0.070698,0.636282,-4.070000,114,114,116
-0.071219,0.664712,-4.100000,119,118,121
-0.071567,0.691810,-4.120000,125,124,129
-0.071740,0.717402,-4.130000,73,58,50
-0.071740,0.741316,-4.130000,95,80,62
-0.071740,0.765229,-4.130000,105,93,70
-0.071567,0.787232,-4.120000,119,107,86
-0.071567,0.811087,-4.120000,131,118,102
-0.071567,0.834943,-4.120000,140,129,114
-0.071567,0.858798,-4.120000,147,136,128
-0.071740,0.884796,-4.130000,179,173,154
-0.088416,1.119935,-5.090000,127,117,93
-0.088763,1.153923,-5.110000,115,107,87
-0.088763,1.183511,-5.110000,108,101,87
-0.088763,1.213099,-5.110000,120,118,128
-0.088763,1.242687,-5.110000,127,125,137
-0.088763,1.272274,-5.110000,129,128,137
-0.088763,1.301862,-5.110000,123,121,135
-0.088763,1.331450,-5.110000,120,119,126
-0.088763,1.361038,-5.110000,120,119,126
-0.088763,1.390625,-5.110000,115,114,123
-0.088763,1.420213,-5.110000,113,111,121
-0.089111,1.455475,-5.130000,114,113,120
-0.089111,1.485179,-5.130000,114,113,118
-0.089111,1.514882,-5.130000,113,112,117
-0.089111,1.544586,-5.130000,112,111,114
-0.089458,1.580427,-5.150000,111,111,111
-0.089458,1.610247,-5.150000,111,111,111
-0.089458,1.640066,-5.150000,109,109,109
-0.089458,1.669885,-5.150000,106,106,108
-0.089458,1.699705,-5.150000,106,106,108
-0.089458,1.729524,-5.150000,104,104,104
-0.046669,-1.050048,-4.030000,128,124,78
-0.046900,-1.031809,-4.050000,124,118,70
-0.046900,-1.008358,-4.050000,117,110,58
-0.046900,-0.984908,-4.050000,109,100,57
-0.046900,-0.961458,-4.050000,94,84,48
-0.047364,-0.947272,-4.090000,77,68,39
-0.058597,-1.142632,-5.060000,85,81,75
-0.057902,-1.100133,-5.000000,81,77,76
-0.047364,-0.876227,-4.090000,77,72,69
-0.000000,-0.000000,-0.000000,75,69,64
-0.000000,-0.000000,-0.000000,75,69,64
-0.000000,-0.000000,-0.000000,70,64,61
-0.000000,-0.000000,-0.000000,68,61,61
-0.045742,-0.731878,-3.950000,37,36,45
-0.045742,-0.709006,-3.950000,29,28,37
-0.045742,-0.686135,-3.950000,82,69,53
-0.045511,-0.659906,-3.930000,87,70,46
-0.045395,-0.635529,-3.920000,95,78,52
-0.045163,-0.609705,-3.900000,94,78,49
-0.044816,-0.582607,-3.870000,99,80,52
-0.044584,-0.557304,-3.850000,102,84,54
-0.044121,-0.529453,-3.810000,104,87,54
-0.043774,-0.503397,-3.780000,108,91,56
-0.043658,-0.480237,-3.770000,114,97,59
-0.043542,-0.457192,-3.760000,118,99,60
-0.043426,-0.434263,-3.750000,120,103,65
-0.043310,-0.411450,-3.740000,123,106,69
-0.043195,-0.388752,-3.730000,123,107,67
-0.043195,-0.367155,-3.730000,124,108,70
-0.043079,-0.344631,-3.720000,129,111,69
-0.043079,-0.323092,-3.720000,130,112,71
-0.043079,-0.301552,-3.720000,130,112,71
-0.043079,-0.280013,-3.720000,130,112,73
-0.043079,-0.258473,-3.720000,113,99,63
-0.042963,-0.236297,-3.710000,101,82,57
-0.042963,-0.214815,-3.710000,68,48,34
-0.042963,-0.193334,-3.710000,87,81,77
-0.042847,-0.171389,-3.700000,139,136,130
-0.042731,-0.149560,-3.690000,141,133,131
-0.042731,-0.128194,-3.690000,134,125,126
-0.042731,-0.106829,-3.690000,135,128,130
-0.042731,-0.085463,-3.690000,137,131,131
-0.042731,-0.064097,-3.690000,139,132,132
-0.042963,-0.042963,-3.710000,143,136,139
-0.042963,-0.021482,-3.710000,116,100,87
-0.042963,0.000000,-3.710000,62,44,32
-0.042963,0.021482,-3.710000,85,68,62
-0.042963,0.042963,-3.710000,114,98,74
-0.043079,0.064618,-3.720000,125,106,69
-0.043079,0.086158,-3.720000,132,117,85
-0.043079,0.107697,-3.720000,144,123,82
-0.043195,0.129584,-3.730000,143,124,87
-0.043195,0.151181,-3.730000,143,125,81
-0.043310,0.173242,-3.740000,141,124,75
-0.043310,0.194897,-3.740000,139,121,75
-0.043310,0.216552,-3.740000,139,122,73
-0.043310,0.238208,-3.740000,139,122,73
-0.043310,0.259863,-3.740000,139,120,79
-0.043426,0.282271,-3.750000,137,120,76
-0.043426,0.303984,-3.750000,136,118,74
-0.044121,0.330908,-3.810000,132,116,76
-0.044237,0.353895,-3.820000,135,118,80
-0.044237,0.376014,-3.820000,134,116,83
-0.044353,0.399174,-3.830000,131,116,82
-0.044353,0.421351,-3.830000,125,110,76
-0.044584,0.445843,-3.850000,124,108,79
-0.044816,0.470567,-3.870000,104,100,97
-0.045279,0.498071,-3.910000,41,41,70
-0.045395,0.522042,-3.920000,37,39,70
-0.045858,0.550298,-3.960000,46,48,79
-0.046669,0.583360,-4.030000,65,59,99
-0.046669,0.606694,-4.030000,63,57,80
-0.047479,0.640972,-4.100000,65,58,59
-0.047827,0.669575,-4.130000,82,73,72
-0.047827,0.693489,-4.130000,79,68,65
-0.047827,0.717402,-4.130000,95,80,65
-0.047827,0.741316,-4.130000,104,92,69
-0.047827,0.765229,-4.130000,117,105,82
-0.047827,0.789142,-4.130000,125,113,90
-0.047827,0.813056,-4.130000,130,118,93
-0.047827,0.836969,-4.130000,132,121,102
-0.047827,0.860883,-4.130000,142,132,122
-0.058944,1.090463,-5.090000,129,120,105
-0.059176,1.124335,-5.110000,128,118,99
-0.059176,1.153923,-5.110000,111,105,87
-0.059176,1.183511,-5.110000,121,121,123
-0.059176,1.213099,-5.110000,126,124,136
-0.059176,1.242687,-5.110000,128,126,140
-0.059176,1.272274,-5.110000,126,124,136
-0.059176,1.301862,-5.110000,126,124,136
-0.059176,1.331450,-5.110000,123,122,129
-0.059176,1.361038,-5.110000,127,125,137
-0.059176,1.390625,-5.110000,121,119,131
-0.059407,1.425772,-5.130000,116,115,122
-0.059407,1.455475,-5.130000,118,116,124
-0.059407,1.485179,-5.130000,114,113,120
-0.059407,1.514882,-5.130000,107,106,111
-0.059407,1.544586,-5.130000,108,107,112
-0.059407,1.574290,-5.130000,108,108,110
-0.059639,1.610247,-5.150000,107,107,109
-0.059639,1.640066,-5.150000,108,108,110
-0.059639,1.669885,-5.150000,104,103,108
-0.059639,1.699705,-5.150000,100,100,102
-0.059639,1.729524,-5.150000,99,99,99
-0.023450,-1.055259,-4.050000,122,118,72
-0.023450,-1.031809,-4.050000,128,122,74
-0.023450,-1.008358,-4.050000,118,110,61
-0.023450,-0.984908,-4.050000,112,104,59
-0.023392,-0.959084,-4.040000,104,95,55
-0.023392,-0.935692,-4.040000,88,78,43
-0.023392,-0.912299,-4.040000,68,62,53
-0.023392,-0.888907,-4.040000,84,78,75
-0.000000,-0.000000,-0.000000,82,75,73
-0.000000,-0.000000,-0.000000,79,73,70
-0.000000,-0.000000,-0.000000,77,71,68
-0.022929,-0.779589,-3.960000,72,66,63
-0.022929,-0.756660,-3.960000,69,62,62
-0.022929,-0.733730,-3.960000,42,40,50
-0.022929,-0.710801,-3.960000,33,31,43
-0.022929,-0.687872,-3.960000,30,28,42
-0.022755,-0.659906,-3.930000,83,66,44
-0.022697,-0.635529,-3.920000,90,73,49
-0.022582,-0.609705,-3.900000,92,77,48
-0.022408,-0.582607,-3.870000,99,80,54
-0.022292,-0.557304,-3.850000,101,85,54
-0.022061,-0.529453,-3.810000,106,88,55
-0.021945,-0.504729,-3.790000,109,92,55
-0.021887,-0.481511,-3.780000,114,95,60
-0.021771,-0.457192,-3.760000,118,99,60
-0.021713,-0.434263,-3.750000,117,101,63
-0.021655,-0.411450,-3.740000,121,104,66
-0.021597,-0.388752,-3.730000,122,106,66
-0.021597,-0.367155,-3.730000,126,107,68
-0.021539,-0.344631,-3.720000,126,108,62
-0.021539,-0.323092,-3.720000,130,113,69
-0.021539,-0.301552,-3.720000,129,111,67
-0.021539,-0.280013,-3.720000,133,115,71
-0.021539,-0.258473,-3.720000,133,115,71
-0.021539,-0.236934,-3.720000,132,114,68
-0.021482,-0.214815,-3.710000,132,112,69
-0.021482,-0.193334,-3.710000,131,111,67
-0.021424,-0.171389,-3.700000,126,106,63
-0.021424,-0.149965,-3.700000,118,103,67
-0.021366,-0.128194,-3.690000,116,99,64
-0.021366,-0.106829,-3.690000,114,97,59
-0.021366,-0.085463,-3.690000,112,92,60
-0.021366,-0.064097,-3.690000,117,97,61
-0.021424,-0.042847,-3.700000,116,100,58
-0.021482,-0.021482,-3.710000,121,105,60
-0.021482,0.000000,-3.710000,127,111,57
-0.021482,0.021482,-3.710000,133,115,69
-0.021482,0.042963,-3.710000,139,123,81
-0.021539,0.064618,-3.720000,143,127,85
-0.021539,0.086158,-3.720000,146,131,95
-0.021539,0.107697,-3.720000,148,129,90
-0.021539,0.129237,-3.720000,146,127,88
-0.021597,0.151181,-3.730000,144,127,81
-0.021597,0.172779,-3.730000,140,123,72
-0.021655,0.194897,-3.740000,139,122,73
-0.021655,0.216552,-3.740000,139,122,71
-0.021597,0.237571,-3.730000,137,120,72
-0.021655,0.259863,-3.740000,138,122,80
-0.021655,0.281518,-3.740000,137,119,78
-0.000000,0.000000,-0.000000,135,117,75
-0.000000,0.000000,-0.000000,134,118,75
-0.000000,0.000000,-0.000000,135,118,78
-0.000000,0.000000,-0.000000,136,118,86
-0.021887,0.393963,-3.780000,130,115,81
-0.022061,0.419150,-3.810000,126,110,82
-0.022176,0.443527,-3.830000,95,82,54
-0.022292,0.468135,-3.850000,32,35,61
-0.022408,0.492975,-3.870000,37,39,70
-0.022640,0.520710,-3.910000,33,37,68
-0.023103,0.554467,-3.990000,39,42,70
-0.023334,0.583360,-4.030000,48,49,73
-0.023508,0.611210,-4.060000,88,79,68
-0.023856,0.644099,-4.120000,89,80,67
-0.023913,0.669575,-4.130000,91,81,69
-0.023913,0.693489,-4.130000,99,88,71
-0.023913,0.717402,-4.130000,107,95,69
-0.023913,0.741316,-4.130000,117,105,80
-0.023913,0.765229,-4.130000,124,114,88
-0.023913,0.789142,-4.130000,128,116,88
-0.023913,0.813056,-4.130000,136,124,98
-0.023913,0.836969,-4.130000,172,165,140
-0.029472,1.060991,-5.090000,127,117,107
-0.029588,1.094748,-5.110000,123,115,93
-0.029588,1.124335,-5.110000,110,103,87
-0.029588,1.153923,-5.110000,107,102,92
-0.029588,1.183511,-5.110000,120,119,124
-0.029588,1.213099,-5.110000,125,122,137
-0.029588,1.242687,-5.110000,139,135,159
-0.029588,1.272274,-5.110000,125,122,137
-0.029588,1.301862,-5.110000,119,117,129
-0.029588,1.331450,-5.110000,118,116,126
-0.029588,1.361038,-5.110000,120,118,130
-0.029704,1.396068,-5.130000,125,122,137
-0.029704,1.425772,-5.130000,122,121,130
-0.029704,1.455475,-5.130000,116,114,126
-0.029704,1.485179,-5.130000,113,111,121
-0.029704,1.514882,-5.130000,111,110,115
-0.029704,1.544586,-5.130000,107,106,111
-0.029819,1.580427,-5.150000,106,106,108
-0.029819,1.610247,-5.150000,105,104,109
-0.029819,1.640066,-5.150000,100,100,102
-0.029819,1.669885,-5.150000,97,96,101
-0.029819,1.699705,-5.150000,99,99,99
-0.029819,1.729524,-5.150000,97,97,97
0.000000,-1.055259,-4.050000,116,113,64
0.000000,-1.031809,-4.050000,126,118,71
0.000000,-1.008358,-4.050000,125,117,68
0.000000,-0.982476,-4.040000,112,106,58
0.000000,-0.951962,-4.010000,111,103,58
0.000000,-0.928743,-4.010000,101,92,49
0.000000,-0.905525,-4.010000,88,77,35
0.000000,-0.882306,-4.010000,69,61,38
0.000000,-0.000000,-0.000000,80,74,72
0.000000,-0.000000,-0.000000,78,74,70
0.000000,-0.810624,-4.000000,76,69,67
0.000000,-0.785495,-3.990000,75,68,66
0.000000,-0.756660,-3.960000,72,65,66
0.000000,-0.733730,-3.960000,45,44,53
0.000000,-0.710801,-3.960000,34,31,46
0.000000,-0.687872,-3.960000,29,26,43
0.000000,-0.659906,-3.930000,29,27,41
0.000000,-0.633908,-3.910000,90,73,49
0.000000,-0.609705,-3.900000,90,74,47
0.000000,-0.582607,-3.870000,97,81,54
0.000000,-0.557304,-3.850000,102,85,59
0.000000,-0.529453,-3.810000,107,90,55
0.000000,-0.504729,-3.790000,110,94,56
0.000000,-0.481511,-3.780000,114,97,62
0.000000,-0.458408,-3.770000,115,97,57
0.000000,-0.435421,-3.760000,118,102,64
0.000000,-0.412550,-3.750000,120,104,61
0.000000,-0.389794,-3.740000,122,106,66
0.000000,-0.367155,-3.730000,126,108,66
0.000000,-0.344631,-3.720000,127,110,61
0.000000,-0.323092,-3.720000,128,111,64
0.000000,-0.301552,-3.720000,132,113,72
0.000000,-0.280013,-3.720000,134,116,70
0.000000,-0.258473,-3.720000,136,119,72
0.000000,-0.236297,-3.710000,139,121,75
0.000000,-0.214815,-3.710000,140,120,75
0.000000,-0.193334,-3.710000,140,120,77
0.000000,-0.171389,-3.700000,140,120,75
0.000000,-0.149560,-3.690000,139,121,77
0.000000,-0.128194,-3.690000,137,120,76
0.000000,-0.106539,-3.680000,140,121,80
0.000000,-0.085231,-3.680000,141,123,79
0.000000,-0.064097,-3.690000,141,124,75
0.000000,-0.042731,-3.690000,137,120,74
0.000000,-0.021482,-3.710000,140,122,76
0.000000,0.000000,-3.710000,143,126,79
0.000000,0.021482,-3.710000,148,132,89
0.000000,0.042963,-3.710000,152,135,98
0.000000,0.064445,-3.710000,158,143,105
0.000000,0.086158,-3.720000,160,145,111
0.000000,0.107697,-3.720000,145,129,87
0.000000,0.129237,-3.720000,143,125,81
0.000000,0.150776,-3.720000,142,125,76
0.000000,0.172779,-3.730000,141,124,73
0.000000,0.194376,-3.730000,139,122,73
0.000000,0.215973,-3.730000,139,122,71
0.000000,0.237571,-3.730000,138,123,76
0.000000,0.259863,-3.740000,137,119,78
0.000000,0.000000,-0.000000,140,121,80
0.000000,0.000000,-0.000000,136,119,82
0.000000,0.000000,-0.000000,134,117,77
0.000000,0.000000,-0.000000,131,115,73
0.000000,0.000000,-0.000000,131,115,84
0.000000,0.000000,-0.000000,127,112,81
0.000000,0.000000,-0.000000,65,62,83
0.000000,0.441211,-3.810000,41,40,72
0.000000,0.465703,-3.830000,36,38,67
0.000000,0.492975,-3.870000,32,34,67
0.000000,0.520710,-3.910000,33,37,68
0.000000,0.560025,-4.030000,37,40,66
0.000000,0.586255,-4.050000,67,67,83
0.000000,0.617232,-4.100000,93,84,69
0.000000,0.645662,-4.130000,95,87,67
0.000000,0.672818,-4.150000,98,90,67
0.000000,0.693489,-4.130000,105,95,73
0.000000,0.717402,-4.130000,118,104,77
0.000000,0.741316,-4.130000,127,118,89
0.000000,0.765229,-4.130000,134,125,98
0.000000,0.789142,-4.130000,133,124,95
0.000000,0.813056,-4.130000,199,201,180
0.000000,0.841022,-4.150000,125,117,83
0.000000,1.065160,-5.110000,119,110,83
0.000000,1.094748,-5.110000,109,103,84
0.000000,1.124335,-5.110000,106,100,93
0.000000,1.153923,-5.110000,121,120,127
0.000000,1.183511,-5.110000,123,122,129
0.000000,1.213099,-5.110000,120,118,130
0.000000,1.242687,-5.110000,122,120,132
0.000000,1.272274,-5.110000,122,120,134
0.000000,1.301862,-5.110000,122,119,136
0.000000,1.331450,-5.110000,126,122,146
0.000000,1.361038,-5.110000,118,116,128
0.000000,1.396068,-5.130000,115,113,127
0.000000,1.425772,-5.130000,115,113,125
0.000000,1.455475,-5.130000,116,114,131
0.000000,1.485179,-5.130000,115,113,125
0.000000,1.514882,-5.130000,109,108,115
0.000000,1.544586,-5.130000,104,103,108
0.000000,1.574290,-5.130000,100,99,104
0.000000,1.610247,-5.150000,101,100,105
0.000000,1.640066,-5.150000,98,97,100
0.000000,1.669885,-5.150000,95,95,97
0.000000,1.699705,-5.150000,97,96,99
0.000000,1.729524,-5.150000,94,95,92
0.023508,-1.057864,-4.060000,113,107,61
0.023450,-1.031809,-4.050000,122,114,64
0.023219,-0.998399,-4.010000,129,121,71
0.023219,-0.975181,-4.010000,119,113,65
0.023219,-0.951962,-4.010000,114,105,58
0.023219,-0.928743,-4.010000,110,101,57
0.023219,-0.905525,-4.010000,103,95,48
0.023219,-0.882306,-4.010000,89,79,46
0.023219,-0.859088,-4.010000,70,61,46
0.023508,-0.846291,-4.060000,71,67,61
0.023682,-0.828863,-4.090000,76,69,69
0.023508,-0.799275,-4.060000,75,69,64
0.022987,-0.758570,-3.970000,73,67,67
0.022929,-0.733730,-3.960000,43,42,51
0.022929,-0.710801,-3.960000,31,29,44
0.022929,-0.687872,-3.960000,27,24,41
0.022755,-0.659906,-3.930000,27,24,39
0.022640,-0.633908,-3.910000,23,23,39
0.022582,-0.609705,-3.900000,89,72,48
0.022408,-0.582607,-3.870000,95,78,52
0.022234,-0.555856,-3.840000,98,84,55
0.022061,-0.529453,-3.810000,107,90,55
0.021945,-0.504729,-3.790000,109,92,57
0.021887,-0.481511,-3.780000,114,97,59
0.021829,-0.458408,-3.770000,115,99,59
0.021771,-0.435421,-3.760000,116,99,62
0.021713,-0.412550,-3.750000,118,103,60
0.021713,-0.390837,-3.750000,120,104,61
0.021597,-0.367155,-3.730000,124,105,64
0.021539,-0.344631,-3.720000,124,106,58
0.021539,-0.323092,-3.720000,127,111,64
0.021539,-0.301552,-3.720000,132,114,70
0.021539,-0.280013,-3.720000,133,115,69
0.021539,-0.258473,-3.720000,134,117,68
0.021482,-0.236297,-3.710000,136,119,72
0.021482,-0.214815,-3.710000,139,120,72
0.021424,-0.192813,-3.700000,141,121,76
0.021366,-0.170926,-3.690000,139,119,74
0.021366,-0.149560,-3.690000,139,121,77
0.021308,-0.127847,-3.680000,140,122,78
0.021308,-0.106539,-3.680000,140,122,78
0.021308,-0.085231,-3.680000,142,124,80
0.021308,-0.063923,-3.680000,146,128,80
0.021366,-0.042731,-3.690000,147,128,87
0.021424,-0.021424,-3.700000,147,129,83
0.021482,0.000000,-3.710000,150,134,90
0.021482,0.021482,-3.710000,152,136,96
0.021482,0.042963,-3.710000,158,141,104
0.021482,0.064445,-3.710000,162,148,112
0.021482,0.085926,-3.710000,161,148,116
0.021482,0.107408,-3.710000,145,129,87
0.021539,0.129237,-3.720000,142,125,78
0.021597,0.151181,-3.730000,142,125,76
0.021597,0.172779,-3.730000,141,124,73
0.021597,0.194376,-3.730000,137,122,73
0.021597,0.215973,-3.730000,137,120,72
0.021597,0.237571,-3.730000,135,119,74
0.000000,0.000000,-0.000000,136,118,76
0.000000,0.000000,-0.000000,136,118,76
0.000000,0.000000,-0.000000,134,116,83
0.000000,0.000000,-0.000000,131,115,75
0.000000,0.000000,-0.000000,136,120,78
0.000000,0.000000,-0.000000,85,80,68
0.000000,0.000000,-0.000000,31,28,31
0.000000,0.000000,-0.000000,45,42,75
0.022176,0.443527,-3.830000,0,0,30
0.022234,0.466919,-3.840000,28,30,59
0.022640,0.498071,-3.910000,39,40,76
0.023161,0.532696,-4.000000,44,44,89
0.023334,0.560025,-4.030000,47,47,74
0.023508,0.587702,-4.060000,111,99,76
0.023740,0.617232,-4.100000,102,91,70
0.023913,0.645662,-4.130000,105,98,68
0.024029,0.672818,-4.150000,113,105,73
0.024029,0.696847,-4.150000,117,108,79
0.024029,0.720876,-4.150000,121,110,79
0.023913,0.741316,-4.130000,126,118,84
0.023913,0.765229,-4.130000,152,143,114
0.024145,0.796785,-4.170000,126,117,90
0.024203,0.822899,-4.180000,126,116,94
0.029588,1.035572,-5.110000,117,108,77
0.029588,1.065160,-5.110000,107,100,73
0.029588,1.094748,-5.110000,100,95,85
0.029588,1.124335,-5.110000,116,115,122
0.029588,1.153923,-5.110000,121,120,127
0.029588,1.183511,-5.110000,126,124,134
0.029588,1.213099,-5.110000,121,119,133
0.029588,1.242687,-5.110000,116,115,124
0.029588,1.272274,-5.110000,112,114,120
0.029588,1.301862,-5.110000,112,110,120
0.029588,1.331450,-5.110000,111,109,117
0.029588,1.361038,-5.110000,113,111,123
0.029704,1.396068,-5.130000,115,113,127
0.029704,1.425772,-5.130000,115,113,125
0.029704,1.455475,-5.130000,122,119,138
0.029704,1.485179,-5.130000,112,109,124
0.029704,1.514882,-5.130000,106,105,112
0.029704,1.544586,-5.130000,100,99,104
0.029704,1.574290,-5.130000,99,98,103
0.029704,1.603993,-5.130000,97,96,99
0.029819,1.640066,-5.150000,94,94,96
0.029819,1.669885,-5.150000,91,90,93
0.029819,1.699705,-5.150000,87,87,89
0.029819,1.729524,-5.150000,90,90,90
0.047016,-1.057864,-4.060000,106,99,60
0.046900,-1.031809,-4.050000,118,110,61
0.046437,-0.998399,-4.010000,124,116,69
0.046437,-0.975181,-4.010000,125,119,73
0.046437,-0.951962,-4.010000,122,114,64
0.046437,-0.928743,-4.010000,117,109,62
0.046437,-0.905525,-4.010000,112,101,53
0.046437,-0.882306,-4.010000,103,94,52
0.046785,-0.865515,-4.040000,95,86,46
0.047364,-0.852545,-4.090000,82,72,39
0.047364,-0.828863,-4.090000,65,54,40
0.047364,-0.805181,-4.090000,74,67,53
0.047016,-0.775767,-4.060000,71,65,60
0.046669,-0.746700,-4.030000,66,60,56
0.045974,-0.712596,-3.970000,31,30,39
0.045858,-0.687872,-3.960000,30,28,40
0.045511,-0.659906,-3.930000,25,25,41
0.045279,-0.633908,-3.910000,28,27,45
0.044816,-0.605015,-3.870000,22,24,44
0.044584,-0.579596,-3.850000,83,67,50
0.044237,-0.552961,-3.820000,98,84,55
0.043889,-0.526674,-3.790000,106,88,57
0.043889,-0.504729,-3.790000,110,93,58
0.043774,-0.481511,-3.780000,115,98,61
0.043658,-0.458408,-3.770000,116,100,60
0.043426,-0.434263,-3.750000,116,100,60
0.043426,-0.412550,-3.750000,118,102,62
0.043426,-0.390837,-3.750000,120,104,59
0.043195,-0.367155,-3.730000,125,106,65
0.043079,-0.344631,-3.720000,126,109,60
0.043079,-0.323092,-3.720000,127,111,64
0.043079,-0.301552,-3.720000,129,112,65
0.043079,-0.280013,-3.720000,133,115,69
0.043079,-0.258473,-3.720000,134,117,68
0.042963,-0.236297,-3.710000,137,117,69
0.042847,-0.214236,-3.700000,137,117,69
0.042731,-0.192292,-3.690000,140,121,73
0.042731,-0.170926,-3.690000,140,121,73
0.042616,-0.149155,-3.680000,140,122,78
0.042616,-0.127847,-3.680000,141,123,77
0.042500,-0.106250,-3.670000,139,121,77
0.042500,-0.085000,-3.670000,143,125,81
0.042500,-0.063750,-3.670000,144,127,81
0.042616,-0.042616,-3.680000,144,127,83
0.042731,-0.021366,-3.690000,147,129,83
0.042847,0.000000,-3.700000,149,133,88
0.042847,0.021424,-3.700000,148,134,96
0.042963,0.042963,-3.710000,152,137,99
0.042963,0.064445,-3.710000,155,141,103
0.042963,0.085926,-3.710000,155,143,106
0.042963,0.107408,-3.710000,149,133,90
0.043079,0.129237,-3.720000,141,125,80
0.043195,0.151181,-3.730000,141,123,77
0.043195,0.172779,-3.730000,137,122,75
0.043195,0.194376,-3.730000,135,120,72
0.043195,0.215973,-3.730000,140,123,74
0.043195,0.237571,-3.730000,134,120,80
0.043079,0.258473,-3.720000,86,72,56
0.000000,0.000000,-0.000000,27,33,56
0.000000,0.000000,-0.000000,40,44,75
0.000000,0.000000,-0.000000,36,42,74
0.000000,0.000000,-0.000000,35,41,73
0.000000,0.000000,-0.000000,32,36,67
0.000000,0.000000,-0.000000,35,37,66
0.044353,0.421351,-3.830000,12,4,39
0.044353,0.443527,-3.830000,13,7,43
0.044469,0.466919,-3.840000,24,16,50
0.045395,0.499344,-3.920000,43,44,80
0.046437,0.534027,-4.010000,37,39,68
0.046669,0.560025,-4.030000,120,105,85
0.047016,0.587702,-4.060000,119,104,82
0.047016,0.611210,-4.060000,113,105,85
0.047479,0.640972,-4.100000,115,110,84
0.047595,0.666333,-4.110000,125,116,85
0.047827,0.693489,-4.130000,128,119,91
0.048058,0.720876,-4.150000,132,124,86
0.047827,0.741316,-4.130000,191,182,155
0.048290,0.772640,-4.170000,125,116,87
0.048637,0.802518,-4.200000,127,117,95
0.059407,1.009922,-5.130000,126,116,94
0.059176,1.035572,-5.110000,110,103,80
0.059176,1.065160,-5.110000,111,105,98
0.059176,1.094748,-5.110000,115,114,123
0.059176,1.124335,-5.110000,115,114,123
0.059176,1.153923,-5.110000,112,111,118
0.059176,1.183511,-5.110000,114,112,124
0.059176,1.213099,-5.110000,116,114,131
0.059176,1.242687,-5.110000,112,110,120
0.059176,1.272274,-5.110000,107,108,114
0.059176,1.301862,-5.110000,111,109,121
0.059176,1.331450,-5.110000,109,108,117
0.059176,1.361038,-5.110000,107,105,117
0.059407,1.396068,-5.130000,108,106,120
0.059407,1.425772,-5.130000,109,107,120
0.059407,1.455475,-5.130000,105,102,119
0.059407,1.485179,-5.130000,101,99,111
0.059407,1.514882,-5.130000,99,98,105
0.059407,1.544586,-5.130000,98,97,104
0.059407,1.574290,-5.130000,95,95,99
0.059639,1.610247,-5.150000,92,92,94
0.059639,1.640066,-5.150000,90,89,92
0.059639,1.669885,-5.150000,91,90,93
0.059639,1.699705,-5.150000,89,86,91
0.059639,1.729524,-5.150000,85,85,85
0.070177,-1.052653,-4.040000,102,93,60
0.026577,-0.389794,-1.530000,110,101,57
0.026577,-0.380935,-1.530000,118,110,63
0.026577,-0.372076,-1.530000,120,114,68
0.069656,-0.951962,-4.010000,125,117,68
0.070524,-0.940324,-4.060000,123,115,67
0.070524,-0.916816,-4.060000,122,112,63
0.070524,-0.893308,-4.060000,114,105,58
0.071045,-0.876227,-4.090000,108,99,54
