1.532600,-0.212880,-5.190000,121,121,121
1.532600,-0.182469,-5.190000,121,121,121
1.532600,-0.152057,-5.190000,120,120,120
1.532600,-0.121646,-5.190000,120,120,120
1.532600,-0.091234,-5.190000,121,121,119
1.532600,-0.060823,-5.190000,122,122,122
1.532600,-0.030411,-5.190000,122,122,122
1.532600,0.000000,-5.190000,122,122,122
1.526694,0.030294,-5.170000,121,121,121
1.526694,0.060588,-5.170000,121,121,121
1.526694,0.090883,-5.170000,122,122,122
1.526694,0.121177,-5.170000,121,121,121
1.526694,0.151471,-5.170000,121,121,121
1.526694,0.181765,-5.170000,121,121,121
1.526694,0.212060,-5.170000,121,121,121
1.526694,0.242354,-5.170000,118,121,120
1.526694,0.272648,-5.170000,118,118,118
1.526694,0.302942,-5.170000,112,112,112
1.526694,0.333237,-5.170000,105,104,107
1.526694,0.363531,-5.170000,97,96,99
1.526694,0.393825,-5.170000,87,88,85
1.532600,0.425760,-5.190000,85,85,83
1.532600,0.456171,-5.190000,77,77,77
1.532600,0.486583,-5.190000,73,73,73
1.532600,0.516994,-5.190000,69,69,69
1.532600,0.547406,-5.190000,63,62,65
1.532600,0.577817,-5.190000,60,57,58
1.532600,0.608228,-5.190000,55,55,55
1.526694,0.636179,-5.170000,52,50,48
1.308173,0.571078,-4.430000,46,43,46
1.299314,0.592993,-4.400000,40,37,40
1.281597,0.610338,-4.340000,35,32,40
1.266832,0.628444,-4.290000,13,17,34
1.266832,0.653582,-4.290000,8,14,30
1.266832,0.678720,-4.290000,8,11,33
1.257973,0.698935,-4.260000,2,5,29
1.246161,0.717100,-4.220000,1,6,29
1.243208,0.740070,-4.210000,6,12,35
1.234349,0.759289,-4.180000,7,15,37
1.231396,0.781908,-4.170000,8,16,38
1.225490,0.802475,-4.150000,10,20,44
1.216631,0.820815,-4.120000,11,21,47
1.213678,0.842906,-4.110000,10,22,45
1.207772,0.862770,-4.090000,17,27,51
1.198913,0.880232,-4.060000,14,27,50
1.195960,0.901795,-4.050000,8,23,45
1.195960,0.925527,-4.050000,9,19,43
1.195960,0.949258,-4.050000,6,18,44
1.193007,0.970587,-4.040000,5,17,40
1.190054,0.991799,-4.030000,6,15,43
1.184148,1.010374,-4.010000,4,16,39
1.184148,1.033871,-4.010000,0,11,35
1.181195,1.054731,-4.000000,0,10,36
1.178242,1.075474,-3.990000,0,7,31
1.178242,1.098854,-3.990000,4,14,40
1.178242,1.122234,-3.990000,2,11,40
1.178242,1.145614,-3.990000,0,6,37
1.178242,1.168994,-3.990000,0,5,34
1.178242,1.192374,-3.990000,0,6,32
1.178242,1.215754,-3.990000,0,4,33
1.175289,1.236028,-3.980000,0,6,35
1.175289,1.259349,-3.980000,0,7,31
1.175289,1.282671,-3.980000,0,8,32
1.175289,1.305992,-3.980000,0,8,30
1.172336,1.325973,-3.970000,0,10,34
1.172336,1.349236,-3.970000,0,11,31
1.172336,1.372498,-3.970000,0,13,36
1.574695,-1.348415,-5.230000,113,118,118
1.574695,-1.317770,-5.230000,114,116,117
1.574695,-1.287124,-5.230000,116,118,118
1.574695,-1.256478,-5.230000,113,118,118
1.574695,-1.225832,-5.230000,114,119,118
1.574695,-1.195186,-5.230000,114,119,118
1.574695,-1.164541,-5.230000,114,119,118
1.574695,-1.133895,-5.230000,116,120,119
1.574695,-1.103249,-5.230000,116,118,118
1.574695,-1.072603,-5.230000,118,121,118
1.574695,-1.041957,-5.230000,117,120,117
1.574695,-1.011312,-5.230000,117,120,119
1.568673,-0.976916,-5.210000,119,122,121
1.568673,-0.946387,-5.210000,117,120,117
1.568673,-0.915858,-5.210000,118,121,120
1.568673,-0.885330,-5.210000,119,122,121
1.568673,-0.854801,-5.210000,118,121,118
1.568673,-0.824273,-5.210000,118,121,120
1.568673,-0.793744,-5.210000,117,120,119
1.568673,-0.763215,-5.210000,117,120,119
1.568673,-0.732687,-5.210000,117,120,119
1.568673,-0.702158,-5.210000,119,119,119
1.562651,-0.669051,-5.190000,119,119,119
1.562651,-0.638640,-5.190000,117,120,119
1.562651,-0.608228,-5.190000,116,118,118
1.562651,-0.577817,-5.190000,117,120,119
1.562651,-0.547406,-5.190000,119,119,119
1.562651,-0.516994,-5.190000,118,118,118
1.562651,-0.486583,-5.190000,119,119,117
1.562651,-0.456171,-5.190000,120,120,118
1.562651,-0.425760,-5.190000,117,119,121
1.562651,-0.395348,-5.190000,119,122,121
1.568673,-0.366343,-5.210000,120,120,118
1.568673,-0.335815,-5.210000,119,119,119
1.568673,-0.305286,-5.210000,120,120,120
1.568673,-0.274758,-5.210000,121,121,121
1.568673,-0.244229,-5.210000,122,122,122
1.568673,-0.213700,-5.210000,121,121,121
1.568673,-0.183172,-5.210000,121,121,121
1.562651,-0.152057,-5.190000,122,122,122
1.562651,-0.121646,-5.190000,122,123,120
1.562651,-0.091234,-5.190000,123,124,121
1.562651,-0.060823,-5.190000,121,121,121
1.562651,-0.030411,-5.190000,123,123,123
1.556630,0.000000,-5.170000,121,121,121
1.556630,0.030294,-5.170000,122,123,120
1.556630,0.060588,-5.170000,123,123,123
1.556630,0.090883,-5.170000,122,122,122
1.556630,0.121177,-5.170000,121,121,121
1.556630,0.151471,-5.170000,121,121,121
1.556630,0.181765,-5.170000,122,122,122
1.556630,0.212060,-5.170000,119,119,119
1.556630,0.242354,-5.170000,119,119,119
1.556630,0.272648,-5.170000,116,116,116
1.556630,0.302942,-5.170000,112,112,112
1.556630,0.333237,-5.170000,105,105,105
1.556630,0.363531,-5.170000,99,99,99
1.556630,0.393825,-5.170000,91,91,89
1.562651,0.425760,-5.190000,84,84,82
1.562651,0.456171,-5.190000,77,77,77
1.562651,0.486583,-5.190000,73,73,73
1.562651,0.516994,-5.190000,66,67,64
1.562651,0.547406,-5.190000,62,61,64
1.562651,0.577817,-5.190000,58,58,58
1.556630,0.605885,-5.170000,54,54,54
1.556630,0.636179,-5.170000,49,47,46
1.333824,0.571078,-4.430000,44,41,44
1.324791,0.592993,-4.400000,44,41,44
1.303715,0.608932,-4.330000,32,33,42
1.291671,0.628444,-4.290000,12,16,32
1.291671,0.653582,-4.290000,5,11,30
1.291671,0.678720,-4.290000,5,8,29
1.282639,0.698935,-4.260000,7,10,32
1.270595,0.717100,-4.220000,6,12,33
1.267584,0.740070,-4.210000,10,15,38
1.258552,0.759289,-4.180000,7,15,37
1.252530,0.780032,-4.160000,8,18,40
1.243497,0.798607,-4.130000,10,20,42
1.240486,0.820815,-4.120000,10,20,44
1.234465,0.840855,-4.100000,11,23,46
1.231454,0.862770,-4.090000,12,20,42
1.222421,0.880232,-4.060000,9,21,44
1.219410,0.901795,-4.050000,4,16,39
1.219410,0.925527,-4.050000,4,14,38
1.216399,0.946914,-4.040000,3,15,40
1.216399,0.970587,-4.040000,3,15,40
1.213388,0.991799,-4.030000,3,12,41
1.207367,1.010374,-4.010000,2,13,39
1.207367,1.033871,-4.010000,0,13,36
1.204356,1.054731,-4.000000,0,11,37
1.201345,1.075474,-3.990000,5,12,37
1.201345,1.098854,-3.990000,2,9,37
1.201345,1.122234,-3.990000,2,11,38
1.201345,1.145614,-3.990000,0,8,34
1.201345,1.168994,-3.990000,0,4,31
1.201345,1.192374,-3.990000,0,8,33
1.201345,1.215754,-3.990000,0,7,31
1.198334,1.236028,-3.980000,0,7,33
1.198334,1.259349,-3.980000,0,10,34
1.198334,1.282671,-3.980000,0,8,34
1.198334,1.305992,-3.980000,0,8,32
1.198334,1.329313,-3.980000,0,8,32
1.195323,1.349236,-3.970000,0,6,30
1.195323,1.372498,-3.970000,0,8,34
1.604978,-1.348415,-5.230000,113,118,118
1.604978,-1.317770,-5.230000,114,116,117
1.604978,-1.287124,-5.230000,113,118,118
1.604978,-1.256478,-5.230000,113,118,118
1.604978,-1.225832,-5.230000,113,118,116
1.604978,-1.195186,-5.230000,116,118,118
1.604978,-1.164541,-5.230000,113,118,116
1.604978,-1.133895,-5.230000,113,118,116
1.604978,-1.103249,-5.230000,114,119,118
1.604978,-1.072603,-5.230000,116,121,117
1.604978,-1.041957,-5.230000,116,119,116
1.604978,-1.011312,-5.230000,116,118,118
1.604978,-0.980666,-5.230000,116,118,118
1.598840,-0.946387,-5.210000,117,120,117
1.598840,-0.915858,-5.210000,118,120,122
1.598840,-0.885330,-5.210000,117,120,119
1.598840,-0.854801,-5.210000,118,121,120
1.598840,-0.824273,-5.210000,118,121,120
1.598840,-0.793744,-5.210000,116,118,118
1.598840,-0.763215,-5.210000,117,120,119
1.598840,-0.732687,-5.210000,118,121,118
1.598840,-0.702158,-5.210000,119,119,117
1.592702,-0.669051,-5.190000,117,120,119
1.592702,-0.638640,-5.190000,116,118,118
1.592702,-0.608228,-5.190000,117,120,117
1.592702,-0.577817,-5.190000,117,120,117
1.592702,-0.547406,-5.190000,118,121,120
1.592702,-0.516994,-5.190000,118,121,118
1.592702,-0.486583,-5.190000,119,119,119
1.592702,-0.456171,-5.190000,120,120,118
1.598840,-0.427401,-5.210000,118,121,120
1.598840,-0.396872,-5.210000,119,122,121
1.598840,-0.366343,-5.210000,121,121,119
1.598840,-0.335815,-5.210000,120,120,120
1.598840,-0.305286,-5.210000,119,119,119
1.598840,-0.274758,-5.210000,120,120,120
1.598840,-0.244229,-5.210000,120,120,120
1.598840,-0.213700,-5.210000,121,121,121
1.598840,-0.183172,-5.210000,120,120,120
1.598840,-0.152643,-5.210000,120,120,120
1.592702,-0.121646,-5.190000,122,123,120
1.592702,-0.091234,-5.190000,122,123,120
1.592702,-0.060823,-5.190000,122,122,122
1.592702,-0.030411,-5.190000,120,120,120
1.586565,0.000000,-5.170000,120,120,118
1.586565,0.030294,-5.170000,120,120,118
1.586565,0.060588,-5.170000,122,122,124
1.586565,0.090883,-5.170000,121,121,121
1.586565,0.121177,-5.170000,121,121,121
1.586565,0.151471,-5.170000,122,122,122
1.586565,0.181765,-5.170000,121,121,121
1.586565,0.212060,-5.170000,120,120,120
1.586565,0.242354,-5.170000,119,119,117
1.586565,0.272648,-5.170000,118,118,118
1.586565,0.302942,-5.170000,112,112,112
1.586565,0.333237,-5.170000,108,108,108
1.586565,0.363531,-5.170000,99,99,99
1.592702,0.395348,-5.190000,92,92,90
1.592702,0.425760,-5.190000,85,85,83
1.592702,0.456171,-5.190000,80,80,80
1.592702,0.486583,-5.190000,76,76,76
1.592702,0.516994,-5.190000,69,69,67
1.592702,0.547406,-5.190000,64,64,64
1.592702,0.577817,-5.190000,57,57,57
1.586565,0.605885,-5.170000,54,53,56
1.586565,0.636179,-5.170000,50,50,48
1.359474,0.571078,-4.430000,47,45,45
1.350268,0.592993,-4.400000,42,40,43
1.328786,0.608932,-4.330000,27,30,42
1.316511,0.628444,-4.290000,13,17,34
1.316511,0.653582,-4.290000,7,11,28
1.316511,0.678720,-4.290000,7,10,32
1.307305,0.698935,-4.260000,6,12,33
1.291961,0.715401,-4.210000,6,12,33
1.291961,0.740070,-4.210000,9,17,42
1.282755,0.759289,-4.180000,11,18,41
1.276617,0.780032,-4.160000,7,17,36
1.267411,0.798607,-4.130000,9,19,41
1.264342,0.820815,-4.120000,9,19,41
1.258204,0.840855,-4.100000,9,21,42
1.255135,0.862770,-4.090000,11,22,43
1.245929,0.880232,-4.060000,9,21,44
1.242860,0.901795,-4.050000,3,15,38
1.242860,0.925527,-4.050000,8,17,44
1.239791,0.946914,-4.040000,7,16,43
1.236723,0.968185,-4.030000,6,15,43
1.236723,0.991799,-4.030000,7,19,47
1.230585,1.010374,-4.010000,4,14,40
1.230585,1.033871,-4.010000,0,11,37
1.227516,1.054731,-4.000000,0,10,36
1.224448,1.075474,-3.990000,1,11,35
1.224448,1.098854,-3.990000,4,11,36
1.224448,1.122234,-3.990000,1,11,35
1.224448,1.145614,-3.990000,0,9,36
1.224448,1.168994,-3.990000,0,8,33
1.224448,1.192374,-3.990000,0,6,32
1.224448,1.215754,-3.990000,0,7,31
1.221379,1.236028,-3.980000,0,8,32
1.221379,1.259349,-3.980000,0,6,30
1.221379,1.282671,-3.980000,0,10,38
1.221379,1.305992,-3.980000,0,10,34
1.221379,1.329313,-3.980000,0,10,34
1.218310,1.349236,-3.970000,0,6,28
1.218310,1.372498,-3.970000,0,4,28
1.635260,-1.348415,-5.230000,113,118,118
1.635260,-1.317770,-5.230000,111,115,116
1.635260,-1.287124,-5.230000,112,116,117
1.635260,-1.256478,-5.230000,112,117,115
1.635260,-1.225832,-5.230000,112,117,115
1.635260,-1.195186,-5.230000,115,117,116
1.635260,-1.164541,-5.230000,113,118,116
1.635260,-1.133895,-5.230000,114,119,118
1.635260,-1.103249,-5.230000,114,119,118
1.635260,-1.072603,-5.230000,116,120,119
1.635260,-1.041957,-5.230000,117,120,119
1.635260,-1.011312,-5.230000,117,120,119
1.635260,-0.980666,-5.230000,117,120,119
1.635260,-0.950020,-5.230000,117,120,119
1.635260,-0.919374,-5.230000,118,121,120
1.629007,-0.885330,-5.210000,116,118,118
1.629007,-0.854801,-5.210000,118,121,120
1.629007,-0.824273,-5.210000,117,120,119
1.629007,-0.793744,-5.210000,117,120,119
1.629007,-0.763215,-5.210000,117,120,119
1.629007,-0.732687,-5.210000,119,122,119
1.622753,-0.699463,-5.190000,118,121,120
1.622753,-0.669051,-5.190000,119,122,121
1.622753,-0.638640,-5.190000,117,120,119
1.622753,-0.608228,-5.190000,116,119,116
1.622753,-0.577817,-5.190000,118,121,118
1.622753,-0.547406,-5.190000,116,118,118
1.622753,-0.516994,-5.190000,117,120,119
1.622753,-0.486583,-5.190000,119,119,119
1.629007,-0.457929,-5.210000,119,119,117
1.629007,-0.427401,-5.210000,120,120,120
1.629007,-0.396872,-5.210000,117,120,119
1.629007,-0.366343,-5.210000,118,121,120
1.629007,-0.335815,-5.210000,121,121,121
1.629007,-0.305286,-5.210000,122,122,122
1.629007,-0.274758,-5.210000,120,120,120
1.629007,-0.244229,-5.210000,121,121,121
1.629007,-0.213700,-5.210000,121,121,121
1.629007,-0.183172,-5.210000,121,121,121
1.629007,-0.152643,-5.210000,122,123,120
1.629007,-0.122114,-5.210000,121,121,119
1.622753,-0.091234,-5.190000,121,121,119
1.622753,-0.060823,-5.190000,123,124,121
1.622753,-0.030411,-5.190000,122,122,122
1.616500,0.000000,-5.170000,122,123,120
1.616500,0.030294,-5.170000,118,118,118
1.616500,0.060588,-5.170000,121,121,121
1.616500,0.090883,-5.170000,121,121,121
1.616500,0.121177,-5.170000,123,123,123
1.616500,0.151471,-5.170000,122,122,124
1.616500,0.181765,-5.170000,120,120,120
1.616500,0.212060,-5.170000,120,120,120
1.616500,0.242354,-5.170000,120,120,118
1.616500,0.272648,-5.170000,119,119,119
1.616500,0.302942,-5.170000,113,113,113
1.616500,0.333237,-5.170000,107,107,107
1.622753,0.364937,-5.190000,101,101,101
1.622753,0.395348,-5.190000,95,96,93
1.622753,0.425760,-5.190000,88,89,86
1.622753,0.456171,-5.190000,83,83,83
1.622753,0.486583,-5.190000,76,76,74
1.622753,0.516994,-5.190000,70,70,68
1.622753,0.547406,-5.190000,63,63,61
1.622753,0.577817,-5.190000,58,58,58
1.616500,0.605885,-5.170000,54,53,56
1.616500,0.636179,-5.170000,50,50,50
1.385125,0.571078,-4.430000,45,42,43
1.375745,0.592993,-4.400000,45,42,43
1.353858,0.608932,-4.330000,20,24,39
1.341351,0.628444,-4.290000,9,15,31
1.341351,0.653582,-4.290000,8,12,31
1.341351,0.678720,-4.290000,5,8,29
1.331971,0.698935,-4.260000,6,13,31
1.316338,0.715401,-4.210000,8,13,34
1.316338,0.740070,-4.210000,6,14,36
1.306957,0.759289,-4.180000,9,20,39
1.300704,0.780032,-4.160000,13,23,42
1.291324,0.798607,-4.130000,11,22,43
1.288197,0.820815,-4.120000,8,18,40
1.281944,0.840855,-4.100000,10,22,43
1.272564,0.858551,-4.070000,10,22,43
1.269437,0.880232,-4.060000,6,18,42
1.266310,0.901795,-4.050000,5,17,40
1.266310,0.925527,-4.050000,5,17,43
1.263184,0.946914,-4.040000,3,13,37
1.260057,0.968185,-4.030000,9,18,45
1.260057,0.991799,-4.030000,5,17,45
1.253804,1.010374,-4.010000,0,10,34
1.253804,1.033871,-4.010000,0,9,34
1.250677,1.054731,-4.000000,3,15,40
1.247550,1.075474,-3.990000,2,12,36
1.247550,1.098854,-3.990000,0,6,32
1.247550,1.122234,-3.990000,2,12,36
1.247550,1.145614,-3.990000,0,7,33
1.247550,1.168994,-3.990000,0,7,33
1.247550,1.192374,-3.990000,0,3,30
1.247550,1.215754,-3.990000,0,6,30
1.244424,1.236028,-3.980000,0,6,27
1.244424,1.259349,-3.980000,0,4,28
1.244424,1.282671,-3.980000,0,8,35
1.244424,1.305992,-3.980000,0,7,31
1.241297,1.325973,-3.970000,0,10,31
1.241297,1.349236,-3.970000,0,7,29
1.238170,1.369041,-3.960000,0,6,28
1.671912,-1.353572,-5.250000,113,118,118
1.671912,-1.322809,-5.250000,112,117,115
1.665543,-1.287124,-5.230000,113,118,116
1.665543,-1.256478,-5.230000,113,118,116
1.665543,-1.225832,-5.230000,114,119,118
1.665543,-1.195186,-5.230000,114,119,118
1.665543,-1.164541,-5.230000,116,120,119
1.665543,-1.133895,-5.230000,116,120,119
1.665543,-1.103249,-5.230000,116,120,119
1.665543,-1.072603,-5.230000,114,119,118
1.665543,-1.041957,-5.230000,116,118,118
1.665543,-1.011312,-5.230000,117,120,119
1.665543,-0.980666,-5.230000,116,118,118
1.665543,-0.950020,-5.230000,117,120,119
1.665543,-0.919374,-5.230000,117,120,119
1.665543,-0.888728,-5.230000,115,117,116
1.665543,-0.858083,-5.230000,118,121,120
1.659174,-0.824273,-5.210000,118,121,120
1.659174,-0.793744,-5.210000,117,120,119
1.659174,-0.763215,-5.210000,115,117,116
1.659174,-0.732687,-5.210000,118,121,118
1.652804,-0.699463,-5.190000,117,120,119
1.652804,-0.669051,-5.190000,116,120,119
1.652804,-0.638640,-5.190000,115,117,116
1.652804,-0.608228,-5.190000,24,21,24
1.652804,-0.577817,-5.190000,77,99,105
1.652804,-0.547406,-5.190000,102,108,115
1.652804,-0.516994,-5.190000,119,122,121
1.659174,-0.488458,-5.210000,121,123,122
1.659174,-0.457929,-5.210000,118,118,118
1.659174,-0.427401,-5.210000,116,118,120
1.659174,-0.396872,-5.210000,119,122,121
1.659174,-0.366343,-5.210000,118,121,120
1.659174,-0.335815,-5.210000,118,121,120
1.659174,-0.305286,-5.210000,121,123,122
1.659174,-0.274758,-5.210000,122,122,122
1.659174,-0.244229,-5.210000,120,120,120
1.659174,-0.213700,-5.210000,123,123,123
1.659174,-0.183172,-5.210000,122,122,122
1.659174,-0.152643,-5.210000,121,121,119
1.659174,-0.122114,-5.210000,121,121,121
1.652804,-0.091234,-5.190000,121,121,121
1.652804,-0.060823,-5.190000,121,121,121
1.652804,-0.030411,-5.190000,120,120,120
1.646435,0.000000,-5.170000,121,121,119
1.646435,0.030294,-5.170000,122,123,120
1.646435,0.060588,-5.170000,122,122,122
1.646435,0.090883,-5.170000,122,122,122
1.646435,0.121177,-5.170000,121,121,121
1.646435,0.151471,-5.170000,120,120,120
1.646435,0.181765,-5.170000,120,120,120
1.646435,0.212060,-5.170000,119,119,119
1.646435,0.242354,-5.170000,119,119,119
1.646435,0.272648,-5.170000,118,118,118
1.646435,0.302942,-5.170000,113,113,113
1.652804,0.334526,-5.190000,109,109,109
1.652804,0.364937,-5.190000,104,104,104
1.652804,0.395348,-5.190000,99,99,97
1.652804,0.425760,-5.190000,92,92,92
1.652804,0.456171,-5.190000,84,84,84
1.652804,0.486583,-5.190000,78,78,76
1.652804,0.516994,-5.190000,70,68,69
1.652804,0.547406,-5.190000,63,63,63
1.652804,0.577817,-5.190000,58,59,56
1.652804,0.608228,-5.190000,52,52,54
1.646435,0.636179,-5.170000,50,50,50
1.410775,0.571078,-4.430000,47,45,45
1.394852,0.590298,-4.380000,42,42,42
1.391668,0.614557,-4.370000,15,19,36
1.369375,0.629909,-4.300000,6,13,31
1.369375,0.655105,-4.300000,8,12,31
1.369375,0.680302,-4.300000,1,4,26
1.356637,0.698935,-4.260000,4,10,31
1.340714,0.715401,-4.210000,8,13,34
1.337530,0.738312,-4.200000,4,15,34
1.331160,0.759289,-4.180000,8,18,38
1.324791,0.780032,-4.160000,13,21,41
1.315237,0.798607,-4.130000,11,22,43
1.312053,0.820815,-4.120000,11,22,43
1.305684,0.840855,-4.100000,2,17,37
1.296130,0.858551,-4.070000,5,17,40
1.292945,0.880232,-4.060000,9,21,42
1.289761,0.901795,-4.050000,9,21,44
1.289761,0.925527,-4.050000,9,20,46
1.286576,0.946914,-4.040000,19,25,55
1.283391,0.968185,-4.030000,13,25,51
1.283391,0.991799,-4.030000,2,13,41
1.277022,1.010374,-4.010000,1,11,33
1.277022,1.033871,-4.010000,0,11,37
1.273838,1.054731,-4.000000,0,10,36
1.270653,1.075474,-3.990000,2,11,38
1.270653,1.098854,-3.990000,0,9,36
1.270653,1.122234,-3.990000,0,6,32
1.270653,1.145614,-3.990000,0,7,33
1.270653,1.168994,-3.990000,0,8,34
1.270653,1.192374,-3.990000,0,9,38
1.270653,1.215754,-3.990000,0,7,31
1.267468,1.236028,-3.980000,0,10,30
1.267468,1.259349,-3.980000,0,8,31
1.267468,1.282671,-3.980000,0,8,35
1.267468,1.305992,-3.980000,0,7,31
1.264284,1.325973,-3.970000,0,4,29
1.264284,1.349236,-3.970000,0,7,29
1.261099,1.369041,-3.960000,0,6,28
1.702310,-1.353572,-5.250000,112,117,115
1.702310,-1.322809,-5.250000,113,118,116
1.695825,-1.287124,-5.230000,109,117,114
1.695825,-1.256478,-5.230000,112,117,115
1.695825,-1.225832,-5.230000,113,118,116
1.695825,-1.195186,-5.230000,114,119,118
1.695825,-1.164541,-5.230000,113,118,116
1.695825,-1.133895,-5.230000,113,118,116
1.695825,-1.103249,-5.230000,116,120,119
1.695825,-1.072603,-5.230000,114,119,118
1.695825,-1.041957,-5.230000,116,118,118
1.695825,-1.011312,-5.230000,117,120,119
1.695825,-0.980666,-5.230000,117,120,119
1.695825,-0.950020,-5.230000,118,121,120
1.695825,-0.919374,-5.230000,117,120,119
1.695825,-0.888728,-5.230000,116,118,118
1.695825,-0.858083,-5.230000,117,120,119
1.695825,-0.827437,-5.230000,118,121,120
1.695825,-0.796791,-5.230000,118,121,120
1.689340,-0.763215,-5.210000,118,121,120
1.689340,-0.732687,-5.210000,119,122,121
1.689340,-0.702158,-5.210000,117,120,119
1.682855,-0.669051,-5.190000,119,123,124
1.682855,-0.638640,-5.190000,60,74,74
1.682855,-0.608228,-5.190000,63,85,91
1.682855,-0.577817,-5.190000,65,90,100
1.682855,-0.547406,-5.190000,67,93,100
1.689340,-0.518986,-5.210000,67,93,100
1.689340,-0.488458,-5.210000,66,92,99
1.689340,-0.457929,-5.210000,70,93,103
1.689340,-0.427401,-5.210000,60,75,79
1.689340,-0.396872,-5.210000,114,120,116
1.689340,-0.366343,-5.210000,118,121,120
1.689340,-0.335815,-5.210000,119,122,121
1.689340,-0.305286,-5.210000,119,122,121
1.689340,-0.274758,-5.210000,121,121,121
1.689340,-0.244229,-5.210000,120,120,120
1.689340,-0.213700,-5.210000,123,124,121
1.689340,-0.183172,-5.210000,121,121,121
1.689340,-0.152643,-5.210000,121,121,119
1.689340,-0.122114,-5.210000,122,122,122
1.689340,-0.091586,-5.210000,120,120,120
1.682855,-0.060823,-5.190000,121,121,121
1.682855,-0.030411,-5.190000,122,122,122
1.676370,0.000000,-5.170000,122,123,120
1.676370,0.030294,-5.170000,122,122,122
1.676370,0.060588,-5.170000,122,123,120
1.676370,0.090883,-5.170000,121,121,121
1.676370,0.121177,-5.170000,120,120,120
1.676370,0.151471,-5.170000,120,120,120
1.676370,0.181765,-5.170000,121,121,121
1.676370,0.212060,-5.170000,119,119,119
1.676370,0.242354,-5.170000,120,120,120
1.676370,0.272648,-5.170000,119,119,119
1.676370,0.302942,-5.170000,115,115,115
1.682855,0.334526,-5.190000,109,109,109
1.682855,0.364937,-5.190000,106,106,106
1.682855,0.395348,-5.190000,101,101,101
1.682855,0.425760,-5.190000,94,94,94
1.682855,0.456171,-5.190000,86,86,86
1.682855,0.486583,-5.190000,80,81,78
1.682855,0.516994,-5.190000,72,73,70
1.682855,0.547406,-5.190000,63,62,65
1.682855,0.577817,-5.190000,56,56,54
1.682855,0.608228,-5.190000,52,52,54
1.682855,0.638640,-5.190000,45,45,47
1.669885,0.663895,-5.150000,36,37,41
1.426698,0.592993,-4.400000,34,33,36
1.420213,0.615963,-4.380000,16,20,37
1.394273,0.629909,-4.300000,8,14,32
1.394273,0.655105,-4.300000,7,11,30
1.394273,0.680302,-4.300000,1,4,26
1.381303,0.698935,-4.260000,2,7,28
1.365091,0.715401,-4.210000,6,12,33
1.361848,0.738312,-4.200000,8,19,36
1.355363,0.759289,-4.180000,8,18,38
1.348878,0.780032,-4.160000,9,18,38
1.339151,0.798607,-4.130000,11,22,43
1.335908,0.820815,-4.120000,12,25,45
1.329423,0.840855,-4.100000,9,24,44
1.319696,0.858551,-4.070000,4,16,39
1.316453,0.880232,-4.060000,7,20,41
1.313211,0.901795,-4.050000,7,20,43
1.309968,0.923242,-4.040000,12,26,51
1.309968,0.946914,-4.040000,9,18,45
1.306726,0.968185,-4.030000,4,16,39
1.306726,0.991799,-4.030000,0,12,38
1.300241,1.010374,-4.010000,4,15,36
1.296998,1.031293,-4.000000,0,10,34
1.296998,1.054731,-4.000000,0,8,34
1.293756,1.075474,-3.990000,0,10,34
1.293756,1.098854,-3.990000,0,8,32
1.293756,1.122234,-3.990000,0,9,36
1.293756,1.145614,-3.990000,2,11,38
1.293756,1.168994,-3.990000,6,15,41
1.293756,1.192374,-3.990000,0,9,38
1.293756,1.215754,-3.990000,0,8,34
1.290513,1.236028,-3.980000,0,10,30
1.287271,1.256185,-3.970000,0,8,29
1.287271,1.279448,-3.970000,0,4,30
1.287271,1.302710,-3.970000,0,5,30
1.287271,1.325973,-3.970000,0,5,30
1.284028,1.345837,-3.960000,0,8,32
1.284028,1.369041,-3.960000,0,3,26
1.732709,-1.353572,-5.250000,112,119,116
1.732709,-1.322809,-5.250000,110,118,115
1.732709,-1.292046,-5.250000,110,117,117
1.726108,-1.256478,-5.230000,113,118,116
1.726108,-1.225832,-5.230000,113,118,116
1.726108,-1.195186,-5.230000,112,116,117
1.726108,-1.164541,-5.230000,116,120,119
1.726108,-1.133895,-5.230000,114,119,118
1.726108,-1.103249,-5.230000,116,120,119
1.732709,-1.076705,-5.250000,114,119,118
1.732709,-1.045942,-5.250000,117,120,119
1.732709,-1.015179,-5.250000,116,118,118
1.732709,-0.984416,-5.250000,118,121,120
1.726108,-0.950020,-5.230000,119,122,121
1.726108,-0.919374,-5.230000,117,120,119
1.726108,-0.888728,-5.230000,117,120,117
1.726108,-0.858083,-5.230000,117,120,119
1.726108,-0.827437,-5.230000,116,118,118
1.726108,-0.796791,-5.230000,117,120,119
1.726108,-0.766145,-5.230000,118,120,122
1.726108,-0.735499,-5.230000,118,121,120
1.719507,-0.702158,-5.210000,116,118,118
1.719507,-0.671629,-5.210000,89,104,99
1.719507,-0.641101,-5.210000,86,99,92
1.712906,-0.608228,-5.190000,70,92,98
1.712906,-0.577817,-5.190000,64,92,101
1.719507,-0.549515,-5.210000,68,94,101
1.719507,-0.518986,-5.210000,67,95,101
1.719507,-0.488458,-5.210000,66,92,101
1.719507,-0.457929,-5.210000,67,92,104
1.719507,-0.427401,-5.210000,54,71,74
1.719507,-0.396872,-5.210000,80,92,90
1.719507,-0.366343,-5.210000,116,118,118
1.719507,-0.335815,-5.210000,118,121,120
1.719507,-0.305286,-5.210000,121,123,122
1.719507,-0.274758,-5.210000,121,123,124
1.719507,-0.244229,-5.210000,121,123,122
1.719507,-0.213700,-5.210000,121,121,121
1.719507,-0.183172,-5.210000,122,123,120
1.719507,-0.152643,-5.210000,123,123,123
1.719507,-0.122114,-5.210000,122,122,122
1.719507,-0.091586,-5.210000,121,121,121
1.712906,-0.060823,-5.190000,122,122,122
1.712906,-0.030411,-5.190000,123,123,123
1.712906,0.000000,-5.190000,123,124,121
1.706306,0.030294,-5.170000,121,121,121
1.706306,0.060588,-5.170000,122,122,122
1.706306,0.090883,-5.170000,122,122,122
1.706306,0.121177,-5.170000,122,122,122
1.706306,0.151471,-5.170000,122,122,122
1.706306,0.181765,-5.170000,121,121,121
1.706306,0.212060,-5.170000,121,121,121
1.712906,0.243291,-5.190000,121,121,121
1.712906,0.273703,-5.190000,120,120,120
1.712906,0.304114,-5.190000,116,116,116
1.712906,0.334526,-5.190000,113,113,113
1.712906,0.364937,-5.190000,105,108,107
1.712906,0.395348,-5.190000,100,100,100
1.712906,0.425760,-5.190000,95,95,95
1.712906,0.456171,-5.190000,90,90,90
1.712906,0.486583,-5.190000,84,84,84
1.712906,0.516994,-5.190000,73,74,71
1.712906,0.547406,-5.190000,58,59,63
1.712906,0.577817,-5.190000,37,45,51
1.712906,0.608228,-5.190000,31,39,47
1.712906,0.638640,-5.190000,27,37,45
1.712906,0.669051,-5.190000,23,33,44
1.452175,0.592993,-4.400000,26,28,41
1.445574,0.615963,-4.380000,14,18,35
1.425772,0.632839,-4.320000,9,13,32
1.419171,0.655105,-4.300000,9,13,32
1.419171,0.680302,-4.300000,2,5,29
1.405969,0.698935,-4.260000,3,8,31
1.389467,0.715401,-4.210000,9,15,33
1.386167,0.738312,-4.200000,6,16,33
1.379566,0.759289,-4.180000,6,16,35
1.372965,0.780032,-4.160000,15,20,41
1.363064,0.798607,-4.130000,15,23,45
1.359764,0.820815,-4.120000,14,24,45
1.353163,0.840855,-4.100000,9,24,44
1.343262,0.858551,-4.070000,8,23,43
1.339961,0.880232,-4.060000,2,14,37
1.336661,0.901795,-4.050000,4,14,38
1.333361,0.923242,-4.040000,5,17,43
1.333361,0.946914,-4.040000,6,15,41
1.330060,0.968185,-4.030000,4,16,41
1.330060,0.991799,-4.030000,2,12,36
1.323459,1.010374,-4.010000,0,10,30
1.320159,1.031293,-4.000000,0,9,34
1.320159,1.054731,-4.000000,0,6,32
1.316859,1.075474,-3.990000,0,7,33
1.316859,1.098854,-3.990000,0,8,31
1.316859,1.122234,-3.990000,0,9,36
1.316859,1.145614,-3.990000,0,9,38
1.316859,1.168994,-3.990000,0,8,34
1.316859,1.192374,-3.990000,0,9,36
1.313558,1.212707,-3.980000,0,8,34
1.313558,1.236028,-3.980000,0,12,33
1.310258,1.256185,-3.970000,0,8,29
1.310258,1.279448,-3.970000,0,7,33
1.310258,1.302710,-3.970000,2,10,35
1.310258,1.325973,-3.970000,0,8,34
1.306957,1.345837,-3.960000,0,5,29
1.306957,1.369041,-3.960000,0,6,31
1.763107,-1.353572,-5.250000,112,119,116
1.763107,-1.322809,-5.250000,112,118,118
1.763107,-1.292046,-5.250000,113,120,120
1.763107,-1.261283,-5.250000,112,119,116
1.763107,-1.230520,-5.250000,114,119,118
1.756391,-1.195186,-5.230000,114,119,120
1.756391,-1.164541,-5.230000,114,119,118
1.763107,-1.138231,-5.250000,114,119,118
1.763107,-1.107468,-5.250000,116,120,119
1.763107,-1.076705,-5.250000,114,119,118
1.763107,-1.045942,-5.250000,115,117,116
1.763107,-1.015179,-5.250000,117,120,119
1.763107,-0.984416,-5.250000,117,120,119
1.763107,-0.953653,-5.250000,117,120,119
1.763107,-0.922890,-5.250000,118,121,120
1.756391,-0.888728,-5.230000,117,120,119
1.756391,-0.858083,-5.230000,119,122,121
1.756391,-0.827437,-5.230000,117,120,119
1.756391,-0.796791,-5.230000,117,120,119
1.756391,-0.766145,-5.230000,117,119,121
1.756391,-0.735499,-5.230000,117,120,119
1.749674,-0.702158,-5.210000,76,96,103
1.749674,-0.671629,-5.210000,89,101,95
1.749674,-0.641101,-5.210000,94,107,98
1.749674,-0.610572,-5.210000,70,94,99
1.749674,-0.580044,-5.210000,68,96,105
1.749674,-0.549515,-5.210000,64,93,99
1.749674,-0.518986,-5.210000,67,95,101
1.749674,-0.488458,-5.210000,63,89,99
1.749674,-0.457929,-5.210000,65,93,104
1.756391,-0.429041,-5.230000,65,85,87
1.756391,-0.398395,-5.230000,83,94,93
1.756391,-0.367750,-5.230000,102,104,104
1.756391,-0.337104,-5.230000,119,122,121
1.756391,-0.306458,-5.230000,119,122,121
1.756391,-0.275812,-5.230000,117,119,121
1.749674,-0.244229,-5.210000,119,122,121
1.749674,-0.213700,-5.210000,121,123,122
1.749674,-0.183172,-5.210000,121,123,120
1.749674,-0.152643,-5.210000,121,123,122
1.749674,-0.122114,-5.210000,122,122,122
1.749674,-0.091586,-5.210000,121,121,121
1.742957,-0.060823,-5.190000,121,121,121
1.742957,-0.030411,-5.190000,119,122,121
1.742957,0.000000,-5.190000,121,121,119
1.736241,0.030294,-5.170000,122,122,122
1.736241,0.060588,-5.170000,122,122,122
1.736241,0.090883,-5.170000,121,121,121
1.736241,0.121177,-5.170000,122,123,120
1.736241,0.151471,-5.170000,121,121,121
1.736241,0.181765,-5.170000,121,121,121
1.736241,0.212060,-5.170000,121,121,121
1.742957,0.243291,-5.190000,121,121,121
1.742957,0.273703,-5.190000,120,120,120
1.742957,0.304114,-5.190000,116,116,116
1.742957,0.334526,-5.190000,115,115,115
1.742957,0.364937,-5.190000,110,113,112
1.742957,0.395348,-5.190000,104,107,106
1.742957,0.425760,-5.190000,100,100,100
1.742957,0.456171,-5.190000,93,93,93
1.742957,0.486583,-5.190000,84,84,84
1.742957,0.516994,-5.190000,77,77,75
1.742957,0.547406,-5.190000,43,50,59
1.742957,0.577817,-5.190000,33,42,53
1.742957,0.608228,-5.190000,32,40,48
1.742957,0.638640,-5.190000,27,37,45
1.742957,0.669051,-5.190000,23,30,41
1.477652,0.592993,-4.400000,27,32,44
1.470935,0.615963,-4.380000,15,19,36
1.450785,0.632839,-4.320000,13,16,36
1.444069,0.655105,-4.300000,2,7,28
1.440710,0.678720,-4.290000,0,2,26
1.427277,0.697295,-4.250000,1,6,29
1.413844,0.715401,-4.210000,7,16,33
1.410486,0.738312,-4.200000,3,14,33
1.403769,0.759289,-4.180000,7,17,36
1.397053,0.780032,-4.160000,9,17,40
1.386978,0.798607,-4.130000,11,19,39
1.383619,0.820815,-4.120000,8,18,38
1.376903,0.840855,-4.100000,10,22,43
1.366828,0.858551,-4.070000,6,21,41
1.363470,0.880232,-4.060000,3,15,38
1.360111,0.901795,-4.050000,4,14,38
1.356753,0.923242,-4.040000,2,13,39
1.356753,0.946914,-4.040000,1,10,37
1.353395,0.968185,-4.030000,0,12,38
1.353395,0.991799,-4.030000,0,8,32
1.343320,1.007854,-4.000000,0,8,31
1.343320,1.031293,-4.000000,0,7,33
1.343320,1.054731,-4.000000,0,5,29
1.339961,1.075474,-3.990000,0,4,31
1.339961,1.098854,-3.990000,0,7,30
1.339961,1.122234,-3.990000,0,8,32
1.339961,1.145614,-3.990000,0,9,38
1.339961,1.168994,-3.990000,0,9,36
1.336603,1.189385,-3.980000,0,7,33
1.336603,1.212707,-3.980000,0,6,32
1.333245,1.232922,-3.970000,0,7,28
1.333245,1.256185,-3.970000,0,11,31
1.333245,1.279448,-3.970000,0,6,33
1.333245,1.302710,-3.970000,0,7,31
1.333245,1.325973,-3.970000,0,5,29
1.329887,1.345837,-3.960000,0,6,30
1.329887,1.369041,-3.960000,0,5,30
1.793506,-1.353572,-5.250000,110,118,115
1.793506,-1.322809,-5.250000,112,118,118
1.793506,-1.292046,-5.250000,113,118,118
1.793506,-1.261283,-5.250000,113,118,116
1.793506,-1.230520,-5.250000,113,118,116
1.793506,-1.199757,-5.250000,116,120,119
1.793506,-1.168994,-5.250000,116,120,121
1.793506,-1.138231,-5.250000,114,119,118
1.793506,-1.107468,-5.250000,116,120,119
1.793506,-1.076705,-5.250000,114,119,118
1.793506,-1.045942,-5.250000,116,120,119
1.793506,-1.015179,-5.250000,118,121,120
1.793506,-0.984416,-5.250000,118,121,120
1.793506,-0.953653,-5.250000,118,123,121
1.793506,-0.922890,-5.250000,118,123,121
1.793506,-0.892127,-5.250000,119,122,121
1.793506,-0.861364,-5.250000,118,121,120
1.786673,-0.827437,-5.230000,117,120,119
1.786673,-0.796791,-5.230000,118,121,120
1.786673,-0.766145,-5.230000,117,122,120
1.786673,-0.735499,-5.230000,96,105,104
1.786673,-0.704854,-5.230000,76,98,104
1.786673,-0.674208,-5.230000,71,95,101
1.779841,-0.641101,-5.210000,72,95,99
1.779841,-0.610572,-5.210000,96,110,112
1.779841,-0.580044,-5.210000,68,96,105
1.786673,-0.551624,-5.230000,67,95,101
1.779841,-0.518986,-5.210000,72,98,103
1.786673,-0.490333,-5.230000,68,94,101
1.786673,-0.459687,-5.230000,69,95,107
1.786673,-0.429041,-5.230000,71,95,103
1.786673,-0.398395,-5.230000,48,68,73
1.786673,-0.367750,-5.230000,71,87,91
1.786673,-0.337104,-5.230000,118,121,120
1.786673,-0.306458,-5.230000,117,120,119
1.786673,-0.275812,-5.230000,119,122,121
1.786673,-0.245166,-5.230000,119,122,121
1.779841,-0.213700,-5.210000,121,123,122
1.779841,-0.183172,-5.210000,121,123,122
1.779841,-0.152643,-5.210000,121,123,122
1.779841,-0.122114,-5.210000,121,121,121
1.779841,-0.091586,-5.210000,123,123,123
1.779841,-0.061057,-5.210000,122,122,122
1.773008,-0.030411,-5.190000,122,124,123
1.773008,0.000000,-5.190000,122,125,121
1.773008,0.030411,-5.190000,122,122,122
1.766176,0.060588,-5.170000,125,125,125
1.766176,0.090883,-5.170000,123,123,123
1.766176,0.121177,-5.170000,122,122,122
1.766176,0.151471,-5.170000,121,121,121
1.766176,0.181765,-5.170000,122,122,122
1.773008,0.212880,-5.190000,122,122,122
1.773008,0.243291,-5.190000,121,121,121
1.773008,0.273703,-5.190000,118,120,122
1.773008,0.304114,-5.190000,116,118,118
1.773008,0.334526,-5.190000,115,115,115
1.773008,0.364937,-5.190000,111,114,113
1.773008,0.395348,-5.190000,109,111,111
1.773008,0.425760,-5.190000,104,104,104
1.773008,0.456171,-5.190000,95,95,97
1.773008,0.486583,-5.190000,88,88,88
1.773008,0.516994,-5.190000,77,77,77
1.773008,0.547406,-5.190000,47,57,65
1.773008,0.577817,-5.190000,36,46,56
1.773008,0.608228,-5.190000,37,44,53
1.773008,0.638640,-5.190000,25,35,43
1.766176,0.666473,-5.170000,23,30,41
1.496296,0.590298,-4.380000,27,30,40
1.492880,0.614557,-4.370000,15,19,34
1.468966,0.629909,-4.300000,10,14,35
1.468966,0.655105,-4.300000,3,9,29
1.465550,0.678720,-4.290000,0,4,30
1.451885,0.697295,-4.250000,0,2,28
1.438221,0.715401,-4.210000,2,7,28
1.434804,0.738312,-4.200000,2,10,33
1.427972,0.759289,-4.180000,3,13,35
1.421140,0.780032,-4.160000,6,16,35
1.410891,0.798607,-4.130000,9,18,38
1.407475,0.820815,-4.120000,15,23,43
1.400642,0.840855,-4.100000,11,24,44
1.390394,0.858551,-4.070000,9,24,46
1.386978,0.880232,-4.060000,5,17,40
1.383561,0.901795,-4.050000,3,13,37
1.380145,0.923242,-4.040000,2,12,36
1.380145,0.946914,-4.040000,1,8,36
1.376729,0.968185,-4.030000,0,10,36
1.369897,0.986877,-4.010000,0,6,31
1.366480,1.007854,-4.000000,0,8,33
1.366480,1.031293,-4.000000,0,6,35
1.366480,1.054731,-4.000000,0,8,32
1.363064,1.075474,-3.990000,0,5,34
1.363064,1.098854,-3.990000,0,6,32
1.363064,1.122234,-3.990000,0,8,29
1.363064,1.145614,-3.990000,0,8,34
1.359648,1.166064,-3.980000,0,7,33
1.359648,1.189385,-3.980000,0,4,31
1.356232,1.209660,-3.970000,0,4,31
1.352816,1.229817,-3.960000,0,8,29
1.352816,1.253021,-3.960000,0,3,27
1.356232,1.279448,-3.970000,0,1,29
1.356232,1.302710,-3.970000,0,8,29
1.352816,1.322633,-3.960000,0,6,30
1.352816,1.345837,-3.960000,0,4,28
1.352816,1.369041,-3.960000,0,4,29
1.823904,-1.353572,-5.250000,110,118,115
1.823904,-1.322809,-5.250000,112,119,116
1.823904,-1.292046,-5.250000,113,118,118
1.823904,-1.261283,-5.250000,114,119,118
1.823904,-1.230520,-5.250000,113,118,118
1.823904,-1.199757,-5.250000,113,118,116
1.823904,-1.168994,-5.250000,113,118,118
1.823904,-1.138231,-5.250000,116,120,119
1.823904,-1.107468,-5.250000,117,122,120
1.823904,-1.076705,-5.250000,116,121,117
1.823904,-1.045942,-5.250000,117,120,119
1.823904,-1.015179,-5.250000,117,120,119
1.823904,-0.984416,-5.250000,118,123,121
1.823904,-0.953653,-5.250000,117,122,120
1.823904,-0.922890,-5.250000,118,123,121
1.823904,-0.892127,-5.250000,118,121,120
1.823904,-0.861364,-5.250000,119,122,121
1.823904,-0.830601,-5.250000,117,120,119
1.816956,-0.796791,-5.230000,117,122,120
1.816956,-0.766145,-5.230000,117,122,120
1.816956,-0.735499,-5.230000,117,120,119
1.816956,-0.704854,-5.230000,109,118,119
1.816956,-0.674208,-5.230000,94,114,116
1.816956,-0.643562,-5.230000,85,107,111
1.816956,-0.612916,-5.230000,71,93,99
1.816956,-0.582270,-5.230000,70,94,101
1.816956,-0.551624,-5.230000,73,99,106
1.816956,-0.520979,-5.230000,74,99,104
1.816956,-0.490333,-5.230000,73,99,106
1.816956,-0.459687,-5.230000,82,102,109
1.816956,-0.429041,-5.230000,65,88,99
1.816956,-0.398395,-5.230000,91,107,106
1.816956,-0.367750,-5.230000,119,122,121
1.816956,-0.337104,-5.230000,119,122,121
1.816956,-0.306458,-5.230000,119,122,121
1.816956,-0.275812,-5.230000,121,123,122
1.816956,-0.245166,-5.230000,121,123,122
1.810008,-0.213700,-5.210000,121,123,122
1.810008,-0.183172,-5.210000,121,123,122
1.810008,-0.152643,-5.210000,121,123,124
1.810008,-0.122114,-5.210000,122,124,123
1.810008,-0.091586,-5.210000,122,122,122
1.810008,-0.061057,-5.210000,123,123,125
1.810008,-0.030529,-5.210000,122,124,123
1.803059,0.000000,-5.190000,121,123,122
1.803059,0.030411,-5.190000,122,122,122
1.803059,0.060823,-5.190000,123,123,123
1.803059,0.091234,-5.190000,122,122,122
1.796111,0.121177,-5.170000,122,122,122
1.796111,0.151471,-5.170000,123,123,123
1.803059,0.182469,-5.190000,122,122,122
1.803059,0.212880,-5.190000,120,120,120
1.803059,0.243291,-5.190000,121,121,121
1.803059,0.273703,-5.190000,118,120,122
1.803059,0.304114,-5.190000,117,120,119
1.803059,0.334526,-5.190000,116,118,118
1.803059,0.364937,-5.190000,111,114,113
1.803059,0.395348,-5.190000,109,111,111
1.803059,0.425760,-5.190000,105,105,105
1.810008,0.457929,-5.210000,97,96,99
1.810008,0.488458,-5.210000,91,91,91
1.810008,0.518986,-5.210000,55,59,64
1.810008,0.549515,-5.210000,43,55,64
1.810008,0.580044,-5.210000,37,49,59
1.810008,0.610572,-5.210000,34,42,53
1.803059,0.638640,-5.190000,28,38,46
1.803059,0.669051,-5.190000,30,37,46
1.528605,0.592993,-4.400000,31,33,44
1.518183,0.614557,-4.370000,14,18,35
1.500812,0.632839,-4.320000,8,11,33
1.490390,0.653582,-4.290000,1,6,27
1.490390,0.678720,-4.290000,1,6,29
1.476494,0.697295,-4.250000,0,4,27
1.462597,0.715401,-4.210000,0,5,26
1.459123,0.738312,-4.200000,0,6,31
1.452175,0.759289,-4.180000,4,11,34
1.445227,0.780032,-4.160000,7,17,36
1.434804,0.798607,-4.130000,13,21,43
1.427856,0.818823,-4.110000,15,23,45
1.424382,0.840855,-4.100000,14,27,48
1.413960,0.858551,-4.070000,12,24,47
1.407012,0.878064,-4.050000,9,21,44
1.407012,0.901795,-4.050000,6,18,42
1.403538,0.923242,-4.040000,3,13,37
1.403538,0.946914,-4.040000,0,9,36
1.400063,0.968185,-4.030000,1,10,37
1.393115,0.986877,-4.010000,0,8,32
1.389641,1.007854,-4.000000,0,8,36
1.389641,1.031293,-4.000000,0,7,33
1.386167,1.052095,-3.990000,0,7,31
1.386167,1.075474,-3.990000,0,6,35
1.386167,1.098854,-3.990000,0,5,30
1.386167,1.122234,-3.990000,0,7,31
1.386167,1.145614,-3.990000,0,8,34
1.382693,1.166064,-3.980000,0,10,34
1.382693,1.189385,-3.980000,0,9,36
1.379219,1.209660,-3.970000,0,7,33
1.375745,1.229817,-3.960000,0,10,31
1.375745,1.253021,-3.960000,0,7,33
1.375745,1.276225,-3.960000,0,6,35
1.375745,1.299429,-3.960000,0,10,31
1.375745,1.322633,-3.960000,0,8,32
1.375745,1.345837,-3.960000,0,5,30
1.375745,1.369041,-3.960000,0,6,30
1.854302,-1.353572,-5.250000,112,119,116
1.854302,-1.322809,-5.250000,110,118,115
1.854302,-1.292046,-5.250000,113,118,118
1.854302,-1.261283,-5.250000,112,117,115
1.854302,-1.230520,-5.250000,113,118,118
1.854302,-1.199757,-5.250000,114,119,118
1.854302,-1.168994,-5.250000,116,120,121
1.854302,-1.138231,-5.250000,116,120,121
1.854302,-1.107468,-5.250000,114,119,118
1.854302,-1.076705,-5.250000,114,120,116
1.854302,-1.045942,-5.250000,117,120,119
1.854302,-1.015179,-5.250000,118,121,120
1.854302,-0.984416,-5.250000,117,122,120
1.854302,-0.953653,-5.250000,117,122,120
1.854302,-0.922890,-5.250000,117,122,120
1.854302,-0.892127,-5.250000,118,121,120
1.854302,-0.861364,-5.250000,117,120,119
1.854302,-0.830601,-5.250000,119,122,121
1.854302,-0.799838,-5.250000,118,123,121
1.847238,-0.766145,-5.230000,118,123,121
1.847238,-0.735499,-5.230000,118,123,121
1.847238,-0.704854,-5.230000,119,121,123
1.847238,-0.674208,-5.230000,119,122,121
1.847238,-0.643562,-5.230000,121,123,120
1.847238,-0.612916,-5.230000,119,121,123
1.847238,-0.582270,-5.230000,119,121,123
1.847238,-0.551624,-5.230000,118,120,122
1.847238,-0.520979,-5.230000,118,120,122
1.847238,-0.490333,-5.230000,118,121,120
1.847238,-0.459687,-5.230000,119,122,121
1.847238,-0.429041,-5.230000,119,122,121
1.847238,-0.398395,-5.230000,118,121,120
1.847238,-0.367750,-5.230000,121,123,122
1.847238,-0.337104,-5.230000,119,122,121
1.847238,-0.306458,-5.230000,119,121,123
1.847238,-0.275812,-5.230000,119,122,121
1.847238,-0.245166,-5.230000,121,123,122
1.847238,-0.214521,-5.230000,121,123,122
1.840174,-0.183172,-5.210000,121,123,122
1.840174,-0.152643,-5.210000,119,122,121
1.840174,-0.122114,-5.210000,121,123,122
1.840174,-0.091586,-5.210000,122,122,122
1.840174,-0.061057,-5.210000,122,122,122
1.840174,-0.030529,-5.210000,122,122,122
1.833110,0.000000,-5.190000,122,122,122
1.833110,0.030411,-5.190000,122,122,122
1.833110,0.060823,-5.190000,122,122,122
1.833110,0.091234,-5.190000,121,121,121
1.833110,0.121646,-5.190000,122,122,122
1.833110,0.152057,-5.190000,123,123,123
1.833110,0.182469,-5.190000,121,121,121
1.833110,0.212880,-5.190000,122,122,122
1.833110,0.243291,-5.190000,119,121,123
1.833110,0.273703,-5.190000,119,121,123
1.833110,0.304114,-5.190000,117,120,119
1.833110,0.334526,-5.190000,116,118,118
1.833110,0.364937,-5.190000,114,116,115
1.833110,0.395348,-5.190000,110,113,112
1.833110,0.425760,-5.190000,107,107,109
1.840174,0.457929,-5.210000,100,102,101
1.840174,0.488458,-5.210000,94,94,94
1.840174,0.518986,-5.210000,63,67,72
1.840174,0.549515,-5.210000,46,58,68
1.840174,0.580044,-5.210000,42,54,63
1.840174,0.610572,-5.210000,41,49,60
1.833110,0.638640,-5.190000,32,42,48
1.833110,0.669051,-5.190000,30,37,46
1.547018,0.590298,-4.380000,29,32,43
1.532890,0.610338,-4.340000,13,20,38
1.525826,0.632839,-4.320000,12,15,36
1.515230,0.653582,-4.290000,1,6,27
1.515230,0.678720,-4.290000,0,1,25
1.501102,0.697295,-4.250000,0,1,25
1.486974,0.715401,-4.210000,0,1,25
1.483442,0.738312,-4.200000,2,7,32
1.476378,0.759289,-4.180000,6,13,38
1.469314,0.780032,-4.160000,11,19,39
1.455186,0.796674,-4.120000,9,17,40
1.451654,0.818823,-4.110000,11,21,45
1.448122,0.840855,-4.100000,6,19,40
1.437526,0.858551,-4.070000,3,15,38
1.433994,0.880232,-4.060000,3,15,40
1.430462,0.901795,-4.050000,0,10,38
1.426930,0.923242,-4.040000,2,14,37
1.426930,0.946914,-4.040000,3,13,39
1.423398,0.968185,-4.030000,1,10,37
1.416334,0.986877,-4.010000,0,9,36
1.412802,1.007854,-4.000000,0,6,35
1.412802,1.031293,-4.000000,0,7,31
1.412802,1.054731,-4.000000,0,6,33
1.409270,1.075474,-3.990000,0,5,32
1.409270,1.098854,-3.990000,2,9,37
1.409270,1.122234,-3.990000,0,6,31
1.409270,1.145614,-3.990000,0,6,35
1.405738,1.166064,-3.980000,0,6,32
1.405738,1.189385,-3.980000,0,9,36
1.398674,1.206613,-3.960000,0,9,38
1.398674,1.229817,-3.960000,1,11,33
1.398674,1.253021,-3.960000,2,11,38
1.398674,1.276225,-3.960000,0,4,33
1.398674,1.299429,-3.960000,0,6,30
1.398674,1.322633,-3.960000,0,10,34
1.398674,1.345837,-3.960000,0,5,29
1.398674,1.369041,-3.960000,0,7,30
1.891881,-1.358728,-5.270000,110,117,117
1.884701,-1.322809,-5.250000,110,118,115
1.884701,-1.292046,-5.250000,113,118,116
1.884701,-1.261283,-5.250000,113,118,116
1.884701,-1.230520,-5.250000,114,119,120
1.884701,-1.199757,-5.250000,114,120,116
1.884701,-1.168994,-5.250000,116,120,121
1.884701,-1.138231,-5.250000,116,120,121
1.884701,-1.107468,-5.250000,114,119,118
1.884701,-1.076705,-5.250000,117,122,120
1.884701,-1.045942,-5.250000,116,120,121
1.884701,-1.015179,-5.250000,117,121,122
1.884701,-0.984416,-5.250000,118,123,121
1.884701,-0.953653,-5.250000,119,122,121
1.884701,-0.922890,-5.250000,118,123,121
1.884701,-0.892127,-5.250000,118,121,120
1.884701,-0.861364,-5.250000,118,121,120
1.884701,-0.830601,-5.250000,121,123,122
1.884701,-0.799838,-5.250000,119,122,121
1.884701,-0.769075,-5.250000,117,122,120
1.877521,-0.735499,-5.230000,119,122,121
1.877521,-0.704854,-5.230000,117,119,121
1.877521,-0.674208,-5.230000,121,123,122
1.877521,-0.643562,-5.230000,119,122,119
1.877521,-0.612916,-5.230000,116,118,120
1.877521,-0.582270,-5.230000,119,122,121
1.877521,-0.551624,-5.230000,118,120,122
1.877521,-0.520979,-5.230000,118,120,122
1.877521,-0.490333,-5.230000,119,122,121
1.877521,-0.459687,-5.230000,121,123,122
1.877521,-0.429041,-5.230000,121,123,122
1.877521,-0.398395,-5.230000,121,123,122
1.877521,-0.367750,-5.230000,119,122,121
1.877521,-0.337104,-5.230000,118,121,120
1.877521,-0.306458,-5.230000,119,121,123
1.877521,-0.275812,-5.230000,121,123,122
1.877521,-0.245166,-5.230000,121,123,122
1.877521,-0.214521,-5.230000,119,122,121
1.877521,-0.183875,-5.230000,122,124,123
1.870341,-0.152643,-5.210000,119,122,121
1.870341,-0.122114,-5.210000,122,124,123
1.870341,-0.091586,-5.210000,122,124,123
1.870341,-0.061057,-5.210000,121,123,122
1.870341,-0.030529,-5.210000,123,123,123
1.863161,0.000000,-5.190000,123,123,123
1.863161,0.030411,-5.190000,122,123,120
1.863161,0.060823,-5.190000,122,124,123
1.863161,0.091234,-5.190000,123,123,123
1.863161,0.121646,-5.190000,123,123,123
1.863161,0.152057,-5.190000,121,121,121
1.855981,0.181765,-5.170000,122,122,122
1.863161,0.212880,-5.190000,119,121,123
1.863161,0.243291,-5.190000,118,120,122
1.863161,0.273703,-5.190000,118,121,120
1.863161,0.304114,-5.190000,118,121,120
1.863161,0.334526,-5.190000,116,118,118
1.863161,0.364937,-5.190000,114,116,115
1.863161,0.395348,-5.190000,112,115,114
1.870341,0.427401,-5.210000,108,110,111
1.870341,0.457929,-5.210000,105,108,107
1.870341,0.488458,-5.210000,97,100,99
1.870341,0.518986,-5.210000,91,91,89
1.870341,0.549515,-5.210000,84,84,82
1.870341,0.580044,-5.210000,75,74,77
1.870341,0.610572,-5.210000,68,67,70
1.870341,0.641101,-5.210000,61,58,61
1.855981,0.666473,-5.170000,54,54,54
1.579559,0.592993,-4.400000,45,45,49
1.558019,0.610338,-4.340000,10,16,34
1.550839,0.632839,-4.320000,8,13,34
1.540070,0.653582,-4.290000,2,8,26
1.536480,0.677138,-4.280000,0,1,25
1.525710,0.697295,-4.250000,0,1,25
1.511350,0.715401,-4.210000,0,2,28
1.507761,0.738312,-4.200000,2,7,32
1.500581,0.759289,-4.180000,0,7,34
1.493401,0.780032,-4.160000,1,9,34
1.479041,0.796674,-4.120000,7,16,40
1.475451,0.818823,-4.110000,9,19,43
1.468272,0.838804,-4.090000,5,19,44
1.461092,0.858551,-4.070000,2,17,39
1.457502,0.880232,-4.060000,0,12,38
1.453912,0.901795,-4.050000,3,14,44
1.450322,0.923242,-4.040000,3,13,37
1.450322,0.946914,-4.040000,3,13,39
1.446732,0.968185,-4.030000,0,8,34
1.439552,0.986877,-4.010000,0,7,35
1.439552,1.010374,-4.010000,0,4,33
1.435962,1.031293,-4.000000,0,10,34
1.435962,1.054731,-4.000000,0,6,35
1.432373,1.075474,-3.990000,4,10,40
1.432373,1.098854,-3.990000,0,6,33
1.432373,1.122234,-3.990000,0,6,33
1.432373,1.145614,-3.990000,0,7,38
1.428783,1.166064,-3.980000,0,9,38
1.428783,1.189385,-3.980000,0,8,36
1.421603,1.206613,-3.960000,0,7,38
1.421603,1.229817,-3.960000,1,10,37
1.421603,1.253021,-3.960000,0,7,34
1.421603,1.276225,-3.960000,0,5,34
1.425193,1.302710,-3.970000,0,7,31
1.421603,1.322633,-3.960000,0,6,30
1.421603,1.345837,-3.960000,0,10,34
1.421603,1.369041,-3.960000,0,10,34
1.922395,-1.358728,-5.270000,110,117,117
1.922395,-1.327848,-5.270000,110,118,115
1.922395,-1.296968,-5.270000,113,118,116
1.915099,-1.261283,-5.250000,114,119,118
1.915099,-1.230520,-5.250000,116,120,121
1.915099,-1.199757,-5.250000,116,121,117
1.915099,-1.168994,-5.250000,116,120,121
1.915099,-1.138231,-5.250000,114,119,120
1.915099,-1.107468,-5.250000,114,119,120
1.915099,-1.076705,-5.250000,116,120,119
1.915099,-1.045942,-5.250000,116,120,121
1.915099,-1.015179,-5.250000,118,123,121
1.915099,-0.984416,-5.250000,116,120,121
1.915099,-0.953653,-5.250000,118,121,120
1.915099,-0.922890,-5.250000,117,122,120
1.915099,-0.892127,-5.250000,118,121,120
1.915099,-0.861364,-5.250000,119,122,121
1.915099,-0.830601,-5.250000,119,122,121
1.915099,-0.799838,-5.250000,119,122,121
1.915099,-0.769075,-5.250000,117,122,120
1.915099,-0.738312,-5.250000,121,123,122
1.915099,-0.707549,-5.250000,119,122,121
1.907804,-0.674208,-5.230000,119,122,121
1.907804,-0.643562,-5.230000,121,123,120
1.907804,-0.612916,-5.230000,119,122,121
1.907804,-0.582270,-5.230000,122,124,123
1.907804,-0.551624,-5.230000,119,122,121
1.907804,-0.520979,-5.230000,121,123,122
1.907804,-0.490333,-5.230000,121,123,122
1.907804,-0.459687,-5.230000,121,123,120
1.907804,-0.429041,-5.230000,119,122,121
1.907804,-0.398395,-5.230000,119,122,121
1.907804,-0.367750,-5.230000,121,123,122
1.907804,-0.337104,-5.230000,121,123,122
